1	1	1	1	1	1	1	1	1	1	1	1	1	1	1	1	1	1	-0.688	-2.375	-3.34	-3.63	-3.72	-3.673	-3.714	-3.737	-3.63	-3.756	-3.9	-3.734	-3.35	-2.843	-2.678	-2.54	-2.433	-2.279	-2.101	-1.982	-1.952	-1.844	-1.804	-2.206	-3.965	-6.111	-8.264	-10.54	-12.686	-14.642	-16.525	-18.261	-19.847	-21.354	-22.875	-24.431	-25.958	-27.411	-28.856	-30.393	-31.961	-33.316	-34.257	-34.797	-34.992	-35
1	1	1	1	1	1	1	1	1	1	1	1	1	1	1	1	1	-0.478	-1.956	-2.845	-3.25	-3.404	-3.676	-3.729	-3.791	-3.665	-3.528	-3.783	-3.919	-4.098	-3.248	-2.848	-2.673	-2.446	-2.264	-2.05	-1.928	-1.882	-1.879	-1.797	-1.841	-2.446	-4.217	-6.204	-8.199	-10.307	-12.22	-14.026	-15.836	-17.661	-19.539	-21.46	-23.317	-24.988	-26.417	-27.672	-28.944	-30.378	-31.911	-33.274	-34.233	-34.788	-34.99	-35
1	1	1	1	1	1	1	1	1	1	1	1	1	1	1	1	1	-0.768	-2.536	-3.098	-3.011	-3.011	-3.355	-3.776	-3.977	-3.688	-3.684	-3.894	-4.205	-3.995	-2.98	-2.642	-2.565	-2.5	-2.326	-1.971	-1.856	-1.847	-1.865	-1.8	-1.913	-2.659	-4.379	-6.204	-8.047	-9.959	-11.654	-13.353	-15.131	-17.087	-19.305	-21.669	-23.869	-25.642	-26.968	-28.051	-29.183	-30.532	-32.012	-33.331	-34.259	-34.796	-34.991	-35
1	1	1	1	1	1	1	1	1	1	1	1	1	1	1	1	-0.539	-2.078	-2.992	-3.263	-3.232	-3.198	-3.296	-3.704	-3.972	-3.707	-3.52	-3.693	-3.995	-3.363	-2.621	-2.438	-2.608	-2.598	-2.516	-2.081	-1.833	-1.799	-1.791	-1.916	-2.166	-3.158	-4.768	-6.409	-8.073	-9.704	-11.241	-12.894	-14.691	-16.788	-19.289	-21.981	-24.409	-26.234	-27.487	-28.487	-29.575	-30.886	-32.292	-33.511	-34.351	-34.828	-34.993	-35
1	1	1	1	1	1	1	1	1	1	1	1	1	1	1	-0.11	-1.22	-2.474	-3.193	-3.377	-3.433	-3.526	-3.656	-3.602	-3.64	-3.844	-3.768	-3.953	-3.574	-2.945	-2.615	-2.526	-2.714	-2.668	-2.461	-2.054	-1.822	-1.786	-1.893	-2.131	-2.87	-4.195	-5.637	-7.072	-8.413	-9.71	-11.199	-12.854	-14.688	-16.88	-19.52	-22.348	-24.846	-26.675	-27.928	-28.974	-30.122	-31.434	-32.742	-33.802	-34.494	-34.878	-34.996	-35
1	1	1	1	1	1	1	1	1	1	1	1	1	1	1	-0.574	-2.148	-2.76	-3.166	-3.423	-3.539	-3.562	-3.671	-3.604	-3.648	-3.998	-4.102	-3.966	-3.086	-2.821	-2.688	-2.61	-2.587	-2.523	-2.273	-2.053	-2.002	-2.106	-2.304	-2.964	-4.161	-5.45	-6.681	-7.74	-8.752	-10.031	-11.571	-13.254	-15.111	-17.317	-19.938	-22.706	-25.144	-26.974	-28.312	-29.504	-30.777	-32.098	-33.275	-34.137	-34.658	-34.931	-34.999	-35
1	1	1	1	1	1	1	1	1	1	1	1	1	1	1	-0.814	-2.629	-3.057	-3.422	-3.626	-3.683	-3.624	-3.663	-3.682	-3.543	-3.862	-4.204	-3.415	-2.941	-2.726	-2.546	-2.456	-2.406	-2.263	-2.223	-2.216	-2.332	-2.917	-3.854	-4.991	-6.1	-6.866	-7.443	-8.149	-9.205	-10.626	-12.262	-13.992	-15.855	-17.999	-20.466	-23.041	-25.354	-27.194	-28.676	-30.059	-31.454	-32.754	-33.777	-34.44	-34.803	-34.972	-35	-35
1	1	1	1	1	1	1	1	1	1	1	1	1	1	-0.834	-2.668	-3.143	-3.429	-3.612	-3.689	-3.686	-3.648	-3.592	-3.538	-3.595	-4.14	-3.951	-3.05	-2.854	-2.596	-2.418	-2.288	-2.206	-2.068	-2.195	-2.44	-3.161	-4.275	-5.442	-6.474	-7.04	-7.326	-7.781	-8.607	-9.858	-11.443	-13.186	-14.969	-16.824	-18.86	-21.11	-23.434	-25.586	-27.431	-29.052	-30.599	-32.069	-33.306	-34.168	-34.661	-34.903	-34.992	-35	-35
1	1	1	1	1	1	1	1	1	1	1	1	1	-1.005	-3.011	-3.626	-3.677	-3.698	-3.682	-3.724	-3.698	-3.747	-3.661	-3.488	-3.799	-4.304	-3.539	-2.954	-2.694	-2.431	-2.308	-2.188	-2.053	-2.064	-2.219	-2.927	-4.095	-5.297	-6.419	-7.019	-7.226	-7.566	-8.22	-9.288	-10.763	-12.507	-14.333	-16.137	-17.952	-19.859	-21.889	-23.964	-25.939	-27.742	-29.436	-31.074	-32.563	-33.712	-34.432	-34.798	-34.959	-34.999	-35	-35
1	1	1	1	1	1	1	1	1	1	1	1	-1.051	-3.102	-3.661	-3.686	-3.639	-3.623	-3.597	-3.607	-3.597	-3.66	-3.626	-3.548	-3.791	-3.804	-3.051	-2.823	-2.472	-2.266	-2.101	-2.037	-1.98	-2.128	-2.648	-3.743	-4.925	-6.088	-6.9	-7.14	-7.392	-7.919	-8.841	-10.204	-11.925	-13.809	-15.668	-17.427	-19.136	-20.898	-22.746	-24.616	-26.407	-28.106	-29.783	-31.437	-32.901	-33.969	-34.587	-34.872	-34.983	-35	-35	-35
1	1	1	1	1	1	1	1	1	1	1	-0.902	-2.804	-3.21	-3.644	-3.654	-3.742	-3.758	-3.703	-3.52	-3.535	-3.696	-3.666	-3.642	-3.47	-3.055	-2.815	-2.586	-2.298	-2.141	-1.979	-1.881	-2.036	-2.328	-3.22	-4.412	-5.61	-6.642	-7.06	-7.237	-7.62	-8.368	-9.587	-11.253	-13.202	-15.19	-17.022	-18.658	-20.205	-21.809	-23.516	-25.233	-26.865	-28.434	-30.044	-31.667	-33.095	-34.104	-34.663	-34.906	-34.992	-35	-35	-35
1	1	1	1	1	1	1	1	1	1	-0.765	-2.531	-2.839	-3.236	-3.56	-3.706	-3.763	-3.81	-3.798	-3.612	-3.501	-3.576	-3.565	-3.769	-3.554	-2.903	-2.79	-2.424	-2.178	-2.026	-1.927	-1.924	-2.202	-2.885	-4.024	-5.201	-6.337	-6.992	-7.152	-7.395	-7.927	-8.893	-10.362	-12.248	-14.34	-16.367	-18.126	-19.604	-20.968	-22.422	-24.019	-25.643	-27.174	-28.657	-30.206	-31.797	-33.192	-34.166	-34.694	-34.921	-34.994	-35	-35	-35
1	1	1	1	1	1	1	1	1	-0.737	-2.473	-2.676	-3.058	-3.435	-3.67	-3.82	-3.834	-3.827	-3.86	-3.855	-3.562	-3.518	-3.604	-4.007	-3.607	-2.858	-2.706	-2.327	-2.119	-2.008	-1.89	-2.052	-2.426	-3.447	-4.651	-5.855	-6.834	-7.157	-7.322	-7.674	-8.364	-9.5	-11.094	-13.032	-15.109	-17.081	-18.752	-20.111	-21.342	-22.684	-24.211	-25.796	-27.309	-28.782	-30.325	-31.9	-33.266	-34.21	-34.714	-34.927	-34.994	-35	-35	-35
1	1	1	1	1	1	1	1	-0.791	-2.581	-2.76	-3.01	-3.313	-3.574	-3.785	-3.825	-3.915	-3.779	-3.913	-3.902	-3.655	-3.582	-3.763	-3.676	-3.005	-2.753	-2.552	-2.272	-2.095	-1.944	-1.93	-2.144	-2.837	-4.046	-5.289	-6.496	-7.225	-7.435	-7.693	-8.172	-8.992	-10.205	-11.76	-13.547	-15.43	-17.25	-18.85	-20.189	-21.409	-22.73	-24.24	-25.83	-27.378	-28.901	-30.48	-32.05	-33.377	-34.272	-34.742	-34.939	-34.997	-35	-35	-35
1	1	1	1	1	1	1	-0.717	-2.435	-2.758	-2.962	-3.251	-3.402	-3.395	-3.579	-3.811	-3.87	-3.746	-3.824	-3.826	-3.792	-3.48	-3.324	-3.145	-2.805	-2.665	-2.341	-2.069	-1.946	-1.838	-2.002	-2.383	-3.484	-4.784	-6.085	-7.209	-7.706	-8.001	-8.385	-8.972	-9.85	-11.011	-12.366	-13.838	-15.396	-17.007	-18.572	-20.009	-21.37	-22.79	-24.345	-25.965	-27.559	-29.14	-30.751	-32.293	-33.548	-34.365	-34.783	-34.956	-34.999	-35	-35	-35
1	1	1	1	1	1	1	-0.776	-2.553	-2.94	-3.135	-3.39	-3.412	-3.378	-3.554	-3.686	-3.936	-3.905	-3.749	-3.698	-3.85	-3.682	-3.052	-2.905	-2.728	-2.449	-2.062	-1.894	-1.812	-1.812	-2.016	-2.757	-4.12	-5.524	-6.917	-7.952	-8.475	-8.943	-9.45	-10.076	-10.894	-11.871	-12.919	-14.012	-15.226	-16.637	-18.214	-19.84	-21.448	-23.066	-24.713	-26.362	-27.979	-29.586	-31.184	-32.644	-33.776	-34.482	-34.838	-34.979	-35	-35	-35	-35
1	1	1	1	1	1	-0.622	-2.243	-2.673	-3.035	-3.247	-3.434	-3.526	-3.537	-3.61	-3.517	-3.563	-3.658	-3.68	-3.682	-3.584	-3.745	-3.294	-2.954	-2.7	-2.212	-1.861	-1.818	-1.765	-1.872	-2.021	-3.109	-4.663	-6.226	-7.76	-8.836	-9.552	-10.19	-10.758	-11.331	-11.976	-12.684	-13.409	-14.181	-15.145	-16.447	-18.09	-19.934	-21.811	-23.632	-25.369	-27.029	-28.641	-30.238	-31.768	-33.086	-34.046	-34.618	-34.903	-34.995	-35	-35	-35	-35
1	1	1	1	1	-0.479	-1.958	-2.462	-2.904	-3.192	-3.299	-3.454	-3.556	-3.444	-3.442	-3.44	-3.442	-3.517	-3.716	-4.027	-3.883	-3.702	-3.617	-3.056	-2.686	-2.172	-1.828	-1.778	-1.807	-2.04	-2.64	-4.104	-5.714	-7.33	-8.838	-9.91	-10.788	-11.504	-12.043	-12.482	-12.906	-13.35	-13.831	-14.43	-15.317	-16.643	-18.412	-20.446	-22.509	-24.446	-26.212	-27.858	-29.456	-31.014	-32.434	-33.567	-34.325	-34.757	-34.962	-35	-35	-35	-35	-35
1	1	1	1	0.044	-0.913	-2.112	-2.68	-2.983	-3.226	-3.382	-3.577	-3.662	-3.52	-3.472	-3.47	-3.407	-3.389	-3.666	-4.026	-3.992	-3.922	-3.978	-3.192	-2.705	-2.263	-1.878	-1.793	-1.901	-2.303	-3.606	-5.267	-6.938	-8.612	-9.966	-11.058	-11.994	-12.67	-13.093	-13.358	-13.579	-13.841	-14.214	-14.818	-15.806	-17.29	-19.221	-21.38	-23.501	-25.425	-27.141	-28.745	-30.317	-31.813	-33.088	-34.014	-34.579	-34.884	-34.993	-35	-35	-35	-35	-35
1	1	1	1	-0.054	-1.109	-2.15	-2.718	-3.004	-3.214	-3.486	-3.689	-3.836	-3.779	-3.676	-3.576	-3.475	-3.408	-3.374	-3.611	-3.976	-4.222	-4.015	-2.984	-2.779	-2.484	-1.974	-1.872	-2.029	-2.675	-4.351	-6.166	-7.987	-9.76	-11.074	-12.198	-13.097	-13.662	-13.924	-14.006	-14.06	-14.221	-14.611	-15.359	-16.575	-18.288	-20.376	-22.585	-24.657	-26.48	-28.105	-29.653	-31.172	-32.558	-33.652	-34.371	-34.777	-34.965	-35	-35	-35	-35	-35	-35
1	1	1	1	-0.073	-1.146	-2.163	-2.734	-3.042	-3.312	-3.504	-3.736	-3.726	-3.843	-3.824	-3.674	-3.571	-3.526	-3.572	-3.407	-3.678	-4.187	-3.982	-2.827	-2.301	-1.977	-1.88	-1.91	-2.072	-2.861	-4.815	-6.876	-8.948	-10.886	-12.218	-13.329	-14.18	-14.645	-14.75	-14.64	-14.529	-14.616	-15.071	-16.011	-17.478	-19.408	-21.608	-23.812	-25.806	-27.536	-29.091	-30.585	-32.004	-33.222	-34.103	-34.634	-34.909	-34.996	-35	-35	-35	-35	-35	-35
1	1	1	1	-0.104	-1.208	-2.1	-2.716	-3.013	-3.231	-3.324	-3.596	-3.764	-3.81	-3.905	-3.748	-3.589	-3.62	-3.388	-3.492	-3.47	-3.256	-3.348	-3.001	-2.105	-1.796	-1.864	-1.952	-2.106	-3.403	-5.653	-7.948	-10.249	-12.144	-13.393	-14.499	-15.353	-15.788	-15.775	-15.481	-15.183	-15.166	-15.642	-16.711	-18.347	-20.399	-22.643	-24.832	-26.796	-28.516	-30.073	-31.518	-32.795	-33.793	-34.455	-34.827	-34.98	-35	-35	-35	-35	-35	-35	-35
1	1	1	1	-0.336	-1.672	-1.94	-2.517	-2.932	-3.182	-3.392	-3.625	-3.664	-3.83	-4.007	-4.044	-3.732	-3.736	-3.52	-3.192	-3.191	-2.91	-2.741	-2.846	-2.306	-1.93	-1.946	-2.007	-2.282	-4.196	-6.71	-9.232	-11.718	-13.442	-14.625	-15.75	-16.658	-17.116	-17.046	-16.617	-16.157	-16.008	-16.416	-17.48	-19.123	-21.162	-23.376	-25.557	-27.566	-29.37	-30.985	-32.38	-33.485	-34.256	-34.728	-34.956	-34.999	-35	-35	-35	-35	-35	-35	-35
1	1	1	1	-0.371	-1.741	-1.628	-2.194	-2.822	-3.219	-3.465	-3.638	-3.626	-3.766	-3.729	-3.962	-3.866	-3.444	-3.494	-3.337	-3.105	-2.81	-2.689	-2.666	-2.534	-2.207	-2.075	-2.049	-2.453	-4.829	-7.651	-10.479	-13.189	-14.874	-16.062	-17.187	-18.102	-18.569	-18.493	-18.026	-17.493	-17.234	-17.514	-18.436	-19.931	-21.827	-23.938	-26.097	-28.174	-30.088	-31.757	-33.086	-34.023	-34.61	-34.92	-34.997	-35	-35	-35	-35	-35	-35	-35	-35
1	1	1	1	-0.17	-1.34	-1.366	-1.682	-2.309	-3.088	-3.401	-3.475	-3.743	-3.878	-3.669	-3.858	-3.879	-3.382	-3.185	-3.122	-2.986	-2.609	-2.519	-2.538	-2.789	-2.481	-2.146	-2.17	-3.279	-6.12	-9.188	-12.27	-15.073	-16.746	-17.954	-19	-19.802	-20.196	-20.12	-19.696	-19.182	-18.87	-19.012	-19.731	-20.994	-22.668	-24.602	-26.675	-28.763	-30.722	-32.384	-33.617	-34.414	-34.857	-34.992	-35	-35	-35	-35	-35	-35	-35	-35	-35
1	1	1	1	-0.058	-1.116	-1.244	-1.522	-2.09	-2.995	-3.404	-3.449	-3.604	-3.896	-3.948	-3.593	-3.49	-3.486	-3.3	-3.074	-2.869	-2.302	-2.291	-2.259	-2.663	-2.781	-2.147	-2.363	-4.827	-8.173	-11.551	-14.934	-17.541	-19.181	-20.391	-21.291	-21.904	-22.182	-22.102	-21.741	-21.274	-20.93	-20.945	-21.472	-22.501	-23.923	-25.621	-27.504	-29.471	-31.346	-32.912	-34.026	-34.706	-34.974	-35	-35	-35	-35	-35	-35	-35	-35	-35	-35
1	1	1	1	-0.023	-1.046	-1.304	-1.535	-1.84	-2.805	-3.428	-3.643	-3.59	-3.895	-4.109	-3.894	-3.506	-3.53	-3.42	-3.273	-2.974	-2.608	-2.436	-2.257	-2.515	-2.879	-2.166	-3.337	-6.836	-10.581	-14.348	-17.86	-20.218	-21.903	-23.072	-23.85	-24.362	-24.626	-24.608	-24.324	-23.878	-23.477	-23.369	-23.723	-24.542	-25.699	-27.089	-28.666	-30.369	-32.026	-33.402	-34.375	-34.901	-34.998	-35	-35	-35	-35	-35	-35	-35	-35	-35	-35
1	1	1	1	1	-0.197	-1.394	-1.576	-1.534	-2.16	-2.819	-3.494	-3.642	-3.688	-3.771	-4.081	-3.968	-3.686	-3.517	-3.463	-3.36	-3.079	-2.954	-2.972	-2.978	-2.93	-2.942	-5.574	-9.537	-13.548	-17.53	-20.664	-22.756	-24.348	-25.436	-26.202	-26.815	-27.271	-27.46	-27.316	-26.912	-26.459	-26.235	-26.43	-27.032	-27.896	-28.916	-30.094	-31.421	-32.751	-33.881	-34.684	-34.982	-35	-35	-35	-35	-35	-35	-35	-35	-35	-35	-35
1	1	1	1	1	1	-0.19	-1.38	-1.375	-1.733	-2.38	-3.274	-3.418	-3.47	-3.475	-3.552	-3.448	-3.458	-3.504	-3.614	-3.819	-3.658	-3.389	-3.135	-3.231	-4.496	-11.182	-15.037	-16.949	-18.908	-21.013	-22.968	-24.702	-26.061	-27.052	-27.905	-28.772	-29.571	-30.084	-30.174	-29.9	-29.482	-29.208	-29.268	-29.648	-30.203	-30.842	-31.597	-32.502	-33.464	-34.333	-34.896	-34.999	-35	-35	-35	-35	-35	-35	-35	-35	-35	-35	-35
1	1	1	1	1	1	-0.207	-1.415	-1.5	-1.898	-2.656	-3.313	-3.627	-3.924	-4.23	-4.644	-5.135	-5.538	-5.859	-6.075	-6.209	-5.816	-4.936	-5.801	-8.132	-13.189	-18.063	-19.635	-20.605	-21.628	-22.903	-24.386	-25.795	-26.916	-27.829	-28.788	-29.908	-31.034	-31.877	-32.254	-32.206	-31.94	-31.718	-31.71	-31.912	-32.209	-32.536	-32.934	-33.461	-34.087	-34.7	-34.982	-35	-35	-35	-35	-35	-35	-35	-35	-35	-35	-35	-35
1	1	1	1	1	1	-0.136	-1.272	-1.661	-2.136	-2.797	-3.252	-4.775	-6.609	-8.447	-10.457	-12.44	-13.994	-14.95	-15.172	-14.883	-14.276	-13.778	-15.153	-16.805	-18.348	-19.452	-20.339	-21.187	-22.162	-23.374	-24.721	-25.962	-26.974	-27.889	-28.938	-30.209	-31.53	-32.604	-33.237	-33.445	-33.401	-33.314	-33.326	-33.449	-33.605	-33.749	-33.923	-34.187	-34.561	-34.914	-34.999	-35	-35	-35	-35	-35	-35	-35	-35	-35	-35	-35	-35
1	1	1	1	1	1	-0.118	-1.237	-1.908	-2.468	-2.572	-2.554	-3.804	-5.956	-8.159	-10.432	-12.63	-14.188	-15.082	-15.246	-14.922	-14.61	-15.05	-15.905	-16.789	-17.652	-18.547	-19.287	-20.095	-21.179	-22.524	-23.948	-25.24	-26.341	-27.377	-28.535	-29.864	-31.232	-32.402	-33.197	-33.616	-33.786	-33.877	-34.003	-34.174	-34.327	-34.43	-34.516	-34.643	-34.854	-34.988	-35	-35	-35	-35	-35	-35	-35	-35	-35	-35	-35	-35	-35
1	1	1	1	1	1	-0.114	-1.228	-2.13	-2.563	-2.562	-2.712	-3.034	-3.56	-4.193	-4.795	-5.233	-5.658	-5.874	-5.846	-5.714	-5.6	-6.692	-7.552	-7.838	-8.246	-10.658	-13.136	-15.335	-17.772	-20.302	-22.246	-23.76	-25.113	-26.406	-27.728	-29.091	-30.414	-31.552	-32.392	-32.928	-33.264	-33.548	-33.868	-34.212	-34.496	-34.677	-34.779	-34.872	-34.97	-35	-35	-35	-35	-35	-35	-35	-35	-35	-35	-35	-35	-35	-35
1	1	1	1	1	1	-0.049	-1.097	-2.142	-2.452	-2.74	-2.866	-3.029	-3.019	-2.992	-3.046	-2.932	-2.834	-2.897	-2.847	-2.74	-2.572	-2.422	-2.214	-2.19	-2.308	-2.548	-4.992	-8.844	-12.792	-16.708	-19.831	-21.748	-23.422	-25.048	-26.605	-28.039	-29.295	-30.33	-31.116	-31.678	-32.119	-32.584	-33.144	-33.741	-34.256	-34.606	-34.807	-34.928	-34.994	-35	-35	-35	-35	-35	-35	-35	-35	-35	-35	-35	-35	-35	-35
1	1	1	1	1	1	-0.063	-1.126	-2.031	-2.458	-2.84	-3.018	-3.172	-3.013	-2.884	-2.759	-2.704	-2.602	-2.674	-2.564	-2.453	-2.354	-2.273	-2.159	-2.046	-2.12	-2.233	-3.722	-7.033	-10.512	-14.006	-17.278	-19.466	-21.413	-23.352	-25.177	-26.75	-28	-28.955	-29.664	-30.206	-30.702	-31.298	-32.064	-32.916	-33.692	-34.272	-34.643	-34.865	-34.982	-35	-35	-35	-35	-35	-35	-35	-35	-35	-35	-35	-35	-35	-35
1	1	1	1	1	1	0.025	-0.949	-2.056	-2.855	-3.087	-3.224	-3.236	-3.118	-3.01	-2.981	-3.002	-2.723	-2.403	-2.17	-2.253	-2.284	-2.051	-2.082	-2.131	-2.165	-2.536	-3.519	-5.942	-8.866	-11.814	-14.746	-17.131	-19.231	-21.377	-23.432	-25.191	-26.54	-27.516	-28.222	-28.774	-29.311	-29.98	-30.851	-31.857	-32.844	-33.669	-34.27	-34.664	-34.913	-34.996	-35	-35	-35	-35	-35	-35	-35	-35	-35	-35	-35	-35	-35
1	1	1	1	1	1	1	-0.201	-1.403	-2.646	-3.102	-3.338	-3.41	-3.398	-3.399	-3.425	-3.142	-2.99	-2.71	-2.124	-2.243	-2.254	-1.905	-1.83	-1.884	-1.97	-2.414	-2.778	-3.986	-6.455	-9.221	-12.025	-14.744	-17.028	-19.238	-21.423	-23.349	-24.853	-25.953	-26.762	-27.413	-28.038	-28.762	-29.654	-30.691	-31.779	-32.8	-33.655	-34.291	-34.729	-34.965	-35	-35	-35	-35	-35	-35	-35	-35	-35	-35	-35	-35	-35
1	1	1	1	1	1	1	1	-0.419	-1.839	-2.976	-3.412	-3.613	-3.634	-3.457	-3.435	-3.419	-3.429	-2.838	-2.359	-2.529	-2.376	-1.894	-1.714	-1.815	-1.912	-2.121	-2.237	-2.34	-3.331	-5.78	-8.725	-11.724	-14.601	-17.064	-19.276	-21.271	-22.897	-24.144	-25.124	-25.96	-26.755	-27.592	-28.512	-29.523	-30.613	-31.741	-32.815	-33.723	-34.403	-34.852	-34.995	-35	-35	-35	-35	-35	-35	-35	-35	-35	-35	-35	-35
1	1	1	1	1	1	1	1	1	-0.61	-2.22	-3.12	-3.354	-3.582	-3.496	-3.468	-3.429	-3.222	-2.85	-2.797	-2.779	-2.554	-1.986	-1.859	-2.103	-2.056	-1.924	-1.627	-1.672	-1.814	-2.754	-5.233	-8.345	-11.498	-14.552	-17.061	-19.031	-20.681	-22.035	-23.195	-24.262	-25.306	-26.346	-27.379	-28.409	-29.476	-30.631	-31.852	-33.013	-33.962	-34.635	-34.965	-35	-35	-35	-35	-35	-35	-35	-35	-35	-35	-35	-35
1	1	1	1	1	1	1	1	1	1	-0.612	-2.223	-2.929	-3.523	-3.572	-3.567	-3.413	-3.339	-3.09	-2.932	-2.83	-2.358	-2.047	-2.24	-2.339	-2.172	-1.98	-1.644	-1.503	-1.559	-1.808	-2.88	-5.561	-8.597	-11.654	-14.57	-16.659	-18.262	-19.688	-21.017	-22.322	-23.634	-24.937	-26.182	-27.334	-28.44	-29.61	-30.906	-32.25	-33.44	-34.33	-34.877	-34.998	-35	-35	-35	-35	-35	-35	-35	-35	-35	-35	-35
1	1	1	1	1	1	1	1	1	1	1	-0.727	-2.453	-3.313	-3.555	-3.529	-3.464	-3.476	-3.293	-2.957	-2.968	-2.619	-2.428	-2.495	-2.286	-2.125	-1.992	-1.804	-1.52	-1.408	-1.509	-1.895	-3.279	-5.838	-8.668	-11.508	-14.003	-15.765	-17.255	-18.733	-20.24	-21.788	-23.349	-24.854	-26.233	-27.486	-28.716	-30.052	-31.49	-32.851	-33.934	-34.686	-34.982	-35	-35	-35	-35	-35	-35	-35	-35	-35	-35	-35
1	1	1	1	1	1	1	1	1	1	1	1	-0.895	-2.791	-3.39	-3.4	-3.258	-3.488	-3.288	-2.938	-2.872	-2.874	-2.822	-2.713	-2.387	-2.241	-2.121	-2.011	-1.847	-1.584	-1.457	-1.55	-1.98	-3.176	-5.523	-8.175	-10.825	-13.162	-14.918	-16.492	-18.125	-19.838	-21.614	-23.385	-25.049	-26.54	-27.904	-29.274	-30.73	-32.176	-33.416	-34.35	-34.9	-34.999	-35	-35	-35	-35	-35	-35	-35	-35	-35	-35
1	1	1	1	1	1	1	1	1	1	1	1	1	-0.916	-2.832	-3.26	-3.055	-3.395	-3.426	-3.175	-3.235	-3.138	-2.898	-2.599	-2.548	-2.466	-2.372	-2.246	-2.169	-2.07	-1.873	-1.588	-1.624	-1.948	-3.238	-5.59	-8.048	-10.513	-12.721	-14.381	-16.036	-17.844	-19.795	-21.814	-23.777	-25.554	-27.103	-28.521	-29.95	-31.404	-32.758	-33.865	-34.67	-34.982	-35	-35	-35	-35	-35	-35	-35	-35	-35	-35
1	1	1	1	1	1	1	1	1	1	1	1	1	-0.412	-1.824	-2.672	-2.73	-3.118	-3.342	-3.343	-3.547	-3.238	-2.892	-2.751	-2.872	-2.764	-2.62	-2.637	-2.504	-2.457	-2.304	-1.991	-1.684	-1.735	-2.263	-3.821	-6.015	-8.259	-10.498	-12.391	-14.023	-15.864	-17.948	-20.188	-22.43	-24.491	-26.253	-27.753	-29.15	-30.574	-31.995	-33.264	-34.276	-34.894	-35	-35	-35	-35	-35	-35	-35	-35	-35	-35
1	1	1	1	1	1	1	1	1	1	1	1	1	1	-0.409	-1.817	-2.084	-2.938	-3.051	-3.124	-3.315	-3.105	-2.969	-3.299	-3.459	-3.155	-3.072	-3.353	-3.027	-3.225	-3.077	-2.346	-1.97	-1.739	-1.915	-2.43	-4.022	-6.116	-8.232	-10.321	-12.143	-13.974	-16.131	-18.531	-20.996	-23.308	-25.295	-26.93	-28.354	-29.754	-31.205	-32.602	-33.8	-34.695	-34.991	-35	-35	-35	-35	-35	-35	-35	-35	-35
1	1	1	1	1	1	1	1	1	1	1	1	1	1	-0.164	-1.329	-1.716	-2.816	-2.989	-3.014	-3.087	-3.059	-3.089	-3.476	-3.508	-3.268	-3.216	-3.702	-3.555	-3.478	-3.249	-2.551	-2.255	-1.869	-1.73	-1.942	-2.678	-4.462	-6.43	-8.414	-10.4	-12.258	-14.393	-16.862	-19.472	-21.989	-24.206	-26.046	-27.585	-29.009	-30.474	-31.958	-33.31	-34.414	-34.957	-35	-35	-35	-35	-35	-35	-35	-35	-35
1	1	1	1	1	1	1	1	1	1	1	1	1	1	-0.152	-1.305	-1.772	-2.648	-2.903	-2.986	-2.965	-3.023	-3.062	-3.134	-3.463	-3.349	-3.368	-3.64	-4.1	-3.597	-3.157	-2.61	-2.463	-2.07	-1.664	-1.75	-2.03	-3.151	-4.974	-6.858	-8.785	-10.748	-12.815	-15.26	-17.948	-20.624	-23.072	-25.157	-26.88	-28.388	-29.873	-31.411	-32.878	-34.121	-34.888	-35	-35	-35	-35	-35	-35	-35	-35	-35
1	1	1	1	1	1	1	1	1	1	1	1	1	1	-0.138	-1.276	-2.094	-2.5	-2.808	-2.871	-2.939	-2.883	-2.944	-3.042	-3.095	-3.07	-3.292	-3.57	-3.606	-3.25	-2.683	-2.536	-2.501	-2.163	-1.608	-1.614	-1.784	-2.289	-3.786	-5.619	-7.464	-9.423	-11.494	-13.869	-16.593	-19.406	-22.062	-24.385	-26.314	-27.938	-29.466	-31.038	-32.574	-33.894	-34.801	-34.998	-35	-35	-35	-35	-35	-35	-35	-35
1	1	1	1	1	1	1	1	1	1	1	1	1	1	1	-0.602	-2.205	-2.452	-2.799	-2.929	-3.057	-2.979	-2.912	-2.976	-3.143	-3.234	-3.298	-3.234	-2.945	-2.703	-2.586	-2.502	-2.331	-1.995	-1.534	-1.568	-1.66	-1.95	-2.872	-4.622	-6.468	-8.357	-10.474	-12.833	-15.573	-18.492	-21.315	-23.837	-25.945	-27.692	-29.284	-30.891	-32.453	-33.785	-34.734	-34.996	-35	-35	-35	-35	-35	-35	-35	-35
1	1	1	1	1	1	1	1	1	1	1	1	1	1	1	-0.553	-2.105	-2.661	-2.75	-2.973	-3.098	-3.092	-3.086	-3.108	-3.095	-3.148	-3.28	-3.085	-2.846	-2.644	-2.562	-2.424	-2.218	-1.861	-1.5	-1.501	-1.589	-1.795	-2.238	-3.77	-5.696	-7.632	-9.758	-12.198	-14.945	-17.935	-20.874	-23.533	-25.776	-27.634	-29.304	-30.949	-32.508	-33.804	-34.722	-34.994	-35	-35	-35	-35	-35	-35	-35	-35
1	1	1	1	1	1	1	1	1	1	1	1	1	1	1	-0.379	-1.759	-2.647	-2.518	-2.953	-3.237	-3.203	-3.155	-3.264	-3.306	-3.272	-3.186	-3.179	-3.025	-2.794	-2.711	-2.507	-2.21	-1.845	-1.472	-1.441	-1.552	-1.666	-1.928	-3.192	-5.215	-7.259	-9.426	-11.94	-14.697	-17.711	-20.699	-23.423	-25.744	-27.686	-29.433	-31.118	-32.666	-33.904	-34.751	-34.995	-35	-35	-35	-35	-35	-35	-35	-35
1	1	1	1	1	1	1	1	1	1	1	1	1	1	1	1	-0.658	-2.316	-2.208	-2.892	-3.106	-3.15	-3.17	-3.227	-3.262	-3.264	-3.29	-3.502	-3.461	-3.039	-2.707	-2.579	-2.223	-1.826	-1.509	-1.426	-1.517	-1.585	-1.821	-2.872	-5.006	-7.19	-9.445	-12.047	-14.805	-17.784	-20.728	-23.42	-25.75	-27.746	-29.56	-31.288	-32.824	-34.012	-34.793	-34.998	-35	-35	-35	-35	-35	-35	-35	-35
1	1	1	1	1	1	1	1	1	1	1	1	1	1	1	1	-0.528	-2.055	-2.385	-2.868	-3.13	-3.082	-3.01	-3.175	-3.281	-3.262	-3.265	-3.361	-3.653	-3.142	-2.824	-2.621	-2.364	-2.004	-1.602	-1.406	-1.5	-1.557	-1.86	-3.057	-5.285	-7.568	-9.909	-12.547	-15.241	-18.098	-20.895	-23.465	-25.744	-27.764	-29.633	-31.395	-32.93	-34.09	-34.822	-34.998	-35	-35	-35	-35	-35	-35	-35	-35
1	1	1	1	1	1	1	1	1	1	1	1	1	1	1	1	-0.281	-1.562	-2.474	-2.695	-3.022	-3.106	-3.003	-3.059	-3.116	-3.176	-3.388	-3.277	-3.154	-3.357	-3.102	-2.642	-2.365	-2.117	-1.758	-1.408	-1.478	-1.536	-1.794	-3.16	-5.595	-8.083	-10.63	-13.342	-15.918	-18.573	-21.15	-23.552	-25.756	-27.786	-29.698	-31.486	-33.011	-34.145	-34.846	-34.998	-35	-35	-35	-35	-35	-35	-35	-35
1	1	1	1	1	1	1	1	1	1	1	1	1	1	1	1	1	-0.648	-2.297	-2.45	-2.795	-3.062	-3.069	-3.244	-3.403	-3.228	-3.3	-3.174	-3.111	-3.088	-2.732	-2.504	-2.354	-2.24	-2.009	-1.486	-1.46	-1.52	-1.897	-3.736	-6.337	-8.955	-11.669	-14.296	-16.704	-19.142	-21.498	-23.736	-25.875	-27.916	-29.86	-31.648	-33.137	-34.218	-34.869	-35	-35	-35	-35	-35	-35	-35	-35	-35
1	1	1	1	1	1	1	1	1	1	1	1	1	1	1	1	1	-0.521	-2.043	-2.308	-2.601	-3.009	-3.103	-3.094	-3.209	-3.262	-3.063	-2.834	-2.678	-2.541	-2.522	-2.508	-2.424	-2.347	-2.147	-1.621	-1.464	-1.558	-2.334	-4.663	-7.302	-9.951	-12.726	-15.194	-17.5	-19.783	-21.978	-24.106	-26.199	-28.247	-30.198	-31.95	-33.353	-34.337	-34.901	-35	-35	-35	-35	-35	-35	-35	-35	-35
1	1	1	1	1	1	1	1	1	1	1	1	1	1	1	1	1	-0.357	-1.713	-2.242	-2.493	-2.88	-3	-3.055	-3.238	-3.306	-2.971	-2.657	-2.323	-2.16	-2.378	-2.526	-2.46	-2.363	-2.219	-1.808	-1.554	-1.678	-2.649	-5.207	-7.939	-10.7	-13.563	-16	-18.296	-20.521	-22.644	-24.712	-26.769	-28.801	-30.718	-32.381	-33.645	-34.49	-34.938	-35	-35	-35	-35	-35	-35	-35	-35	-35
1	1	1	1	1	1	1	1	1	1	1	1	1	1	1	1	1	1	-0.509	-2.018	-2.421	-2.771	-2.941	-3.007	-3.258	-3.496	-3.204	-2.758	-2.446	-2.095	-2.25	-2.508	-2.384	-2.234	-2.063	-1.72	-1.653	-2.242	-4	-6.541	-9.152	-11.857	-14.469	-16.841	-19.165	-21.396	-23.504	-25.535	-27.542	-29.517	-31.35	-32.873	-33.963	-34.651	-34.969	-35	-35	-35	-35	-35	-35	-35	-35	-35
1	1	1	1	1	1	1	1	1	1	1	1	1	1	1	1	1	1	1	-0.717	-2.433	-2.881	-3.037	-3.107	-3.334	-3.688	-3.581	-2.908	-2.718	-2.51	-2.399	-2.5	-2.298	-2.024	-1.678	-1.606	-1.886	-3.415	-5.775	-8.192	-10.696	-13.197	-15.501	-17.845	-20.182	-22.422	-24.517	-26.496	-28.424	-30.3	-32.002	-33.352	-34.254	-34.788	-34.989	-35	-35	-35	-35	-35	-35	-35	-35	-35
1	1	1	1	1	1	1	1	1	1	1	1	1	1	1	1	1	1	1	-0.493	-1.986	-2.86	-3.104	-3.238	-3.316	-3.444	-3.495	-2.651	-2.42	-2.657	-2.777	-2.468	-2.108	-1.693	-1.53	-1.749	-2.882	-4.999	-7.279	-9.622	-12.052	-14.341	-16.655	-19.013	-21.337	-23.549	-25.592	-27.497	-29.33	-31.08	-32.611	-33.763	-34.487	-34.884	-34.997	-35	-35	-35	-35	-35	-35	-35	-35	-35
1	1	1	1	1	1	1	1	1	1	1	1	1	1	1	1	1	1	1	1	-0.889	-2.778	-2.967	-3.027	-3.098	-3.074	-2.993	-2.682	-2.207	-2.268	-2.466	-2.233	-1.844	-1.456	-1.711	-2.265	-4.05	-6.217	-8.396	-10.743	-13.095	-15.423	-17.821	-20.198	-22.496	-24.653	-26.626	-28.458	-30.203	-31.818	-33.161	-34.104	-34.661	-34.943	-35	-35	-35	-35	-35	-35	-35	-35	-35	-35
1	1	1	1	1	1	1	1	1	1	1	1	1	1	1	1	1	1	1	1	-0.763	-2.525	-2.675	-2.72	-2.842	-3.179	-3.037	-2.814	-2.536	-2.318	-2.234	-2.029	-1.717	-1.472	-1.961	-2.988	-4.933	-6.993	-9.103	-11.46	-13.841	-16.312	-18.805	-21.217	-23.496	-25.594	-27.51	-29.303	-30.993	-32.487	-33.637	-34.382	-34.791	-34.977	-35	-35	-35	-35	-35	-35	-35	-35	-35	-35
1	1	1	1	1	1	1	1	1	1	1	1	1	1	1	1	1	1	1	1	-0.58	-2.16	-2.482	-2.654	-2.782	-3.072	-3.018	-2.786	-2.612	-2.59	-2.298	-1.956	-1.666	-1.605	-2.368	-3.792	-5.696	-7.621	-9.68	-11.987	-14.412	-16.986	-19.548	-21.988	-24.248	-26.302	-28.188	-29.977	-31.638	-33.031	-34.017	-34.592	-34.882	-34.991	-35	-35	-35	-35	-35	-35	-35	-35	-35	-35
1	1	1	1	1	1	1	1	1	1	1	1	1	1	1	1	1	1	1	1	-0.475	-1.949	-2.36	-2.703	-2.946	-3.196	-3.152	-2.807	-2.69	-2.591	-2.322	-1.972	-1.62	-1.433	-2.06	-3.267	-5.399	-7.589	-9.85	-12.392	-14.922	-17.53	-20.104	-22.535	-24.761	-26.776	-28.648	-30.442	-32.092	-33.412	-34.275	-34.731	-34.936	-34.998	-35	-35	-35	-35	-35	-35	-35	-35	-35	-35
1	1	1	1	1	1	1	1	1	1	1	1	1	1	1	1	1	1	1	1	-0.369	-1.738	-2.353	-2.799	-3.113	-3.338	-3.443	-3.146	-3.195	-3.474	-2.848	-2.12	-1.687	-1.376	-1.893	-2.805	-5.089	-7.565	-10.067	-12.808	-15.418	-17.984	-20.516	-22.906	-25.091	-27.066	-28.918	-30.714	-32.354	-33.627	-34.418	-34.806	-34.962	-35	-35	-35	-35	-35	-35	-35	-35	-35	-35	-35
1	1	1	1	1	1	1	1	1	1	1	1	1	1	1	1	1	1	1	1	-0.241	-1.482	-2.265	-2.603	-2.796	-2.996	-2.949	-2.848	-2.795	-2.758	-2.4	-2.035	-1.664	-1.328	-1.797	-2.562	-4.926	-7.618	-10.32	-13.195	-15.812	-18.286	-20.754	-23.112	-25.268	-27.214	-29.042	-30.826	-32.46	-33.716	-34.478	-34.837	-34.974	-35	-35	-35	-35	-35	-35	-35	-35	-35	-35	-35
1	1	1	1	1	1	1	1	1	1	1	1	1	1	1	1	1	1	1	1	-0.17	-1.34	-2.2	-2.48	-2.675	-2.851	-2.79	-2.538	-2.497	-2.474	-2.231	-2.006	-1.608	-1.284	-1.626	-2.57	-5.003	-7.768	-10.546	-13.438	-15.957	-18.323	-20.752	-23.121	-25.294	-27.239	-29.056	-30.835	-32.468	-33.726	-34.486	-34.843	-34.978	-35	-35	-35	-35	-35	-35	-35	-35	-35	-35	-35
1	1	1	1	1	1	1	1	1	1	1	1	1	1	1	1	1	1	1	1	-0.041	-1.083	-1.986	-2.615	-2.951	-3.116	-2.882	-2.514	-3.281	-3.169	-2.716	-2.249	-1.835	-1.331	-1.475	-2.004	-4.084	-7.033	-10.005	-13.04	-15.718	-18.023	-20.452	-22.888	-25.137	-27.138	-28.984	-30.777	-32.424	-33.695	-34.47	-34.836	-34.974	-35	-35	-35	-35	-35	-35	-35	-35	-35	-35	-35
1	1	1	1	1	1	1	1	1	1	1	1	1	1	1	1	1	1	1	1	-0.025	-1.05	-2.036	-2.72	-2.978	-2.929	-2.742	-2.647	-3.728	-3.229	-2.767	-2.309	-1.789	-1.251	-1.42	-1.785	-3.265	-6.19	-9.199	-12.242	-15.111	-17.423	-19.87	-22.398	-24.773	-26.886	-28.816	-30.66	-32.338	-33.636	-34.436	-34.822	-34.971	-35	-35	-35	-35	-35	-35	-35	-35	-35	-35	-35
1	1	1	1	1	1	1	1	1	1	1	1	1	1	1	1	1	1	1	1	-0.21	-1.419	-2.081	-2.799	-2.889	-2.969	-2.988	-2.976	-3.346	-2.682	-2.153	-1.96	-1.648	-1.257	-1.404	-1.708	-2.738	-5.493	-8.425	-11.376	-14.292	-16.65	-19.103	-21.701	-24.206	-26.471	-28.531	-30.466	-32.202	-33.546	-34.386	-34.8	-34.965	-35	-35	-35	-35	-35	-35	-35	-35	-35	-35	-35
1	1	1	1	1	1	1	1	1	1	1	1	1	1	1	1	1	1	1	-0.275	-1.549	-1.91	-2.306	-2.807	-2.834	-2.818	-2.825	-2.803	-2.706	-2.645	-2.555	-2.171	-1.808	-1.339	-1.314	-1.643	-2.37	-4.869	-7.693	-10.53	-13.418	-15.846	-18.278	-20.899	-23.499	-25.915	-28.133	-30.188	-32.01	-33.423	-34.319	-34.772	-34.959	-35	-35	-35	-35	-35	-35	-35	-35	-35	-35	-35
1	1	1	1	1	1	1	1	1	1	1	1	1	1	1	1	1	1	-0.049	-1.097	-1.819	-2.019	-2.297	-2.494	-2.699	-2.689	-2.893	-3.18	-3.05	-3.171	-3.051	-2.33	-1.978	-1.472	-1.27	-1.554	-2.332	-4.644	-7.278	-9.919	-12.664	-15.075	-17.467	-20.074	-22.735	-25.29	-27.673	-29.871	-31.799	-33.291	-34.248	-34.741	-34.953	-35	-35	-35	-35	-35	-35	-35	-35	-35	-35	-35
1	1	1	1	1	1	1	1	1	1	1	1	1	1	1	1	1	1	-0.234	-1.467	-1.856	-1.95	-1.986	-2.167	-2.475	-2.517	-2.693	-2.865	-2.749	-2.625	-2.569	-2.371	-1.988	-1.721	-1.405	-1.488	-2.05	-3.978	-6.528	-9.096	-11.76	-14.277	-16.655	-19.258	-21.983	-24.68	-27.236	-29.588	-31.622	-33.184	-34.189	-34.717	-34.95	-35	-35	-35	-35	-35	-35	-35	-35	-35	-35	-35
1	1	1	1	1	1	1	1	1	1	1	1	1	1	1	1	1	1	-0.339	-1.677	-1.871	-1.867	-1.914	-1.86	-2.203	-2.441	-2.534	-2.661	-2.936	-2.746	-2.431	-2.297	-2.013	-1.8	-1.382	-1.403	-1.731	-3.02	-5.489	-8.059	-10.669	-13.362	-15.82	-18.462	-21.293	-24.152	-26.888	-29.38	-31.506	-33.124	-34.161	-34.706	-34.946	-35	-35	-35	-35	-35	-35	-35	-35	-35	-35	-35
1	1	1	1	1	1	1	1	1	1	1	1	1	1	1	1	1	1	-0.378	-1.757	-1.818	-1.815	-1.858	-1.88	-2.262	-2.475	-2.397	-2.546	-2.701	-2.54	-2.393	-2.201	-2.032	-1.822	-1.397	-1.378	-1.654	-2.452	-4.673	-7.182	-9.702	-12.399	-15.014	-17.74	-20.702	-23.721	-26.608	-29.22	-31.423	-33.088	-34.148	-34.702	-34.944	-35	-35	-35	-35	-35	-35	-35	-35	-35	-35	-35
1	1	1	1	1	1	1	1	1	1	1	1	1	1	1	1	1	1	-0.372	-1.744	-1.711	-1.742	-1.886	-2.058	-2.322	-2.408	-2.387	-2.64	-2.51	-2.42	-2.348	-2.188	-2.024	-1.88	-1.474	-1.338	-1.56	-2.051	-3.954	-6.43	-8.915	-11.564	-14.348	-17.178	-20.236	-23.353	-26.334	-29.031	-31.311	-33.028	-34.122	-34.693	-34.944	-35	-35	-35	-35	-35	-35	-35	-35	-35	-35	-35
1	1	1	1	1	1	1	1	1	1	1	1	1	1	1	1	1	1	-0.391	-1.782	-1.756	-1.87	-2.011	-2.256	-2.464	-2.748	-2.714	-2.947	-2.57	-2.328	-2.203	-2.081	-1.91	-1.83	-1.604	-1.291	-1.476	-1.805	-3.285	-5.779	-8.31	-10.948	-13.879	-16.801	-19.894	-23.029	-26.04	-28.794	-31.146	-32.931	-34.073	-34.672	-34.94	-35	-35	-35	-35	-35	-35	-35	-35	-35	-35	-35
1	1	1	1	1	1	1	1	1	1	1	1	1	1	1	1	1	1	-0.371	-1.742	-1.864	-2.066	-2.264	-2.424	-2.69	-3.008	-2.501	-2.607	-2.887	-2.812	-2.325	-2.023	-1.88	-1.72	-1.4	-1.244	-1.413	-1.755	-2.84	-5.311	-7.9	-10.541	-13.548	-16.558	-19.655	-22.779	-25.794	-28.587	-30.994	-32.835	-34.021	-34.65	-34.934	-35	-35	-35	-35	-35	-35	-35	-35	-35	-35	-35
1	1	1	1	1	1	1	1	1	1	1	1	1	1	1	1	1	1	-0.403	-1.806	-1.874	-2.094	-2.359	-2.466	-2.738	-3.112	-2.812	-2.344	-2.556	-3.26	-2.804	-2.322	-1.968	-1.595	-1.302	-1.253	-1.374	-1.68	-2.676	-5.115	-7.706	-10.333	-13.34	-16.398	-19.518	-22.66	-25.693	-28.507	-30.938	-32.8	-34.002	-34.64	-34.931	-35	-35	-35	-35	-35	-35	-35	-35	-35	-35	-35
1	1	1	1	1	1	1	1	1	1	1	1	1	1	1	1	1	-0.161	-1.323	-1.784	-1.986	-2.119	-2.357	-2.483	-2.818	-3.254	-3.256	-2.775	-2.524	-3.275	-3.212	-2.788	-2.48	-1.875	-1.471	-1.31	-1.4	-1.68	-2.71	-5.124	-7.685	-10.28	-13.271	-16.35	-19.51	-22.691	-25.75	-28.566	-30.986	-32.833	-34.022	-34.65	-34.933	-35	-35	-35	-35	-35	-35	-35	-35	-35	-35	-35
1	1	1	1	1	1	1	1	1	1	1	1	1	1	1	1	1	-0.326	-1.653	-1.89	-2.182	-2.224	-2.23	-2.357	-2.777	-3.3	-3.175	-3.412	-3.394	-3.222	-2.771	-2.643	-3.014	-3.043	-2.16	-1.458	-1.472	-1.772	-2.968	-5.381	-7.898	-10.472	-13.448	-16.509	-19.68	-22.858	-25.892	-28.673	-31.056	-32.874	-34.044	-34.66	-34.934	-35	-35	-35	-35	-35	-35	-35	-35	-35	-35	-35
1	1	1	1	1	1	1	1	1	1	1	1	1	1	1	1	-0.422	-1.843	-1.987	-2.152	-2.315	-2.342	-2.184	-2.236	-2.626	-3.23	-3.4	-3.532	-3.718	-3.214	-2.748	-2.238	-2.408	-2.808	-2.373	-1.732	-1.745	-2.193	-3.931	-6.256	-8.605	-11.149	-13.969	-16.932	-20.043	-23.128	-26.059	-28.747	-31.074	-32.869	-34.034	-34.654	-34.93	-34.998	-35	-35	-35	-35	-35	-35	-35	-35	-35	-35
1	1	1	1	1	1	1	1	1	1	1	1	1	1	1	1	-0.416	-1.832	-1.986	-2.149	-2.386	-2.601	-2.664	-2.766	-3.055	-3.305	-3.452	-3.321	-3.165	-2.814	-2.562	-2.306	-2.086	-2.01	-1.779	-1.778	-1.964	-2.626	-4.753	-7.08	-9.428	-12.017	-14.69	-17.563	-20.557	-23.479	-26.241	-28.793	-31.042	-32.817	-33.996	-34.634	-34.922	-34.998	-35	-35	-35	-35	-35	-35	-35	-35	-35	-35
1	1	1	1	1	1	1	1	1	1	1	1	1	1	1	-0.148	-1.296	-1.824	-1.965	-2.148	-2.414	-2.611	-2.873	-3.257	-3.377	-3.096	-3.085	-3.066	-2.578	-2.441	-2.356	-2.185	-2.03	-1.855	-1.667	-1.934	-2.169	-3.321	-5.624	-8.003	-10.43	-12.964	-15.467	-18.218	-21.059	-23.809	-26.402	-28.826	-31.004	-32.764	-33.957	-34.612	-34.913	-34.998	-35	-35	-35	-35	-35	-35	-35	-35	-35	-35
1	1	1	1	1	1	1	1	1	1	1	1	1	1	1	-0.346	-1.692	-1.908	-2.01	-2.116	-2.32	-2.592	-2.978	-3.343	-3.39	-3.296	-2.944	-3.441	-3.372	-3.074	-2.757	-2.349	-2.128	-1.841	-1.98	-2.218	-2.525	-4.365	-6.746	-9.141	-11.576	-13.794	-16.052	-18.616	-21.29	-23.905	-26.402	-28.773	-30.94	-32.711	-33.923	-34.595	-34.902	-34.996	-35	-35	-35	-35	-35	-35	-35	-35	-35	-35
1	1	1	1	1	1	1	1	1	1	1	1	1	1	1	-0.34	-1.68	-1.989	-2.264	-2.211	-2.352	-2.56	-3.128	-3.356	-3.29	-3.124	-2.476	-2.988	-3.701	-3.557	-3.268	-2.732	-2.298	-1.997	-2.33	-2.387	-3.436	-5.623	-7.937	-10.263	-12.38	-14.144	-16.166	-18.525	-21.057	-23.61	-26.116	-28.54	-30.77	-32.598	-33.855	-34.556	-34.882	-34.993	-35	-35	-35	-35	-35	-35	-35	-35	-35	-35
1	1	1	1	1	1	1	1	1	1	1	1	1	1	1	-0.299	-1.597	-1.983	-2.277	-2.462	-2.606	-2.589	-2.828	-2.74	-2.575	-2.359	-2.317	-2.497	-2.987	-2.921	-2.816	-2.506	-2.176	-2.146	-2.477	-2.628	-4.163	-6.314	-8.475	-10.645	-12.365	-13.857	-15.704	-17.936	-20.423	-23.01	-25.603	-28.13	-30.454	-32.363	-33.698	-34.467	-34.838	-34.983	-35	-35	-35	-35	-35	-35	-35	-35	-35	-35
1	1	1	1	1	1	1	1	1	1	1	1	1	1	1	-0.284	-1.567	-2.057	-2.187	-2.41	-2.654	-2.756	-2.498	-2.163	-1.964	-2.072	-2.263	-2.411	-2.398	-2.161	-2.039	-1.876	-1.822	-1.96	-2.442	-2.642	-3.569	-5.482	-7.542	-9.616	-11.479	-13.035	-14.858	-17.116	-19.686	-22.394	-25.099	-27.692	-30.055	-32.021	-33.449	-34.323	-34.769	-34.961	-35	-35	-35	-35	-35	-35	-35	-35	-35	-35
1	1	1	1	1	1	1	1	1	1	1	1	1	1	1	-0.427	-1.853	-2.094	-2.092	-2.359	-2.626	-2.637	-2.574	-2.708	-2.585	-2.28	-2.133	-2.21	-2.239	-1.979	-1.801	-1.69	-1.739	-1.973	-2.029	-2.01	-2.402	-3.77	-5.809	-7.892	-9.986	-12.002	-14.014	-16.43	-19.178	-22.042	-24.824	-27.398	-29.705	-31.668	-33.175	-34.162	-34.692	-34.932	-34.998	-35	-35	-35	-35	-35	-35	-35	-35	-35
1	1	1	1	1	1	1	1	1	1	1	1	1	1	-0.271	-1.541	-2.043	-2.258	-2.302	-2.66	-2.709	-2.646	-2.807	-2.731	-2.559	-2.613	-2.361	-2.273	-2.238	-1.972	-1.694	-1.697	-1.734	-1.762	-1.706	-1.681	-2.076	-3.377	-5.257	-7.188	-9.15	-11.294	-13.527	-16.146	-19.069	-22.046	-24.834	-27.312	-29.498	-31.413	-32.963	-34.036	-34.636	-34.906	-34.994	-35	-35	-35	-35	-35	-35	-35	-35	-35
1	1	1	1	1	1	1	1	1	1	1	1	1	-0.315	-1.63	-1.996	-2.111	-2.204	-2.286	-2.722	-2.87	-3.003	-3.261	-3.06	-2.629	-2.755	-2.467	-2.389	-2.176	-1.948	-1.859	-1.891	-1.77	-1.636	-1.502	-1.561	-2.105	-3.385	-5.202	-7.053	-8.956	-11.146	-13.537	-16.32	-19.336	-22.327	-25.04	-27.378	-29.429	-31.28	-32.846	-33.968	-34.604	-34.89	-34.989	-35	-35	-35	-35	-35	-35	-35	-35	-35
1	1	1	1	1	1	1	1	1	1	1	1	1	-0.469	-1.938	-2.105	-2.106	-2.027	-2.116	-2.629	-3.214	-3.481	-3.666	-3.661	-3.458	-3.5	-2.995	-2.486	-2.097	-1.858	-1.869	-1.901	-1.6	-1.562	-1.479	-1.599	-2.464	-3.758	-5.52	-7.318	-9.176	-11.43	-13.956	-16.816	-19.824	-22.729	-25.303	-27.486	-29.416	-31.213	-32.783	-33.932	-34.59	-34.882	-34.984	-35	-35	-35	-35	-35	-35	-35	-35	-35
1	1	1	1	1	1	1	1	1	1	1	1	-0.212	-1.425	-2.039	-2.092	-2.102	-1.969	-2.171	-2.572	-3.356	-3.734	-3.786	-3.801	-3.814	-3.35	-2.976	-2.6	-2.162	-1.934	-1.884	-1.662	-1.43	-1.496	-1.49	-1.604	-2.588	-4.026	-5.864	-7.733	-9.668	-12.006	-14.584	-17.432	-20.361	-23.121	-25.52	-27.548	-29.375	-31.133	-32.713	-33.89	-34.573	-34.875	-34.979	-35	-35	-35	-35	-35	-35	-35	-35	-35
1	1	1	1	1	1	1	1	1	1	1	1	-0.404	-1.808	-2.102	-2.251	-2.316	-2.216	-2.342	-2.71	-3.158	-3.272	-3.3	-3.398	-3.422	-3.014	-2.463	-2.075	-1.896	-1.9	-1.852	-1.488	-1.371	-1.486	-1.508	-1.846	-2.976	-4.628	-6.52	-8.435	-10.476	-12.748	-15.244	-18.019	-20.85	-23.465	-25.693	-27.568	-29.296	-31.017	-32.613	-33.827	-34.543	-34.864	-34.975	-35	-35	-35	-35	-35	-35	-35	-35	-35
1	1	1	1	1	1	1	1	1	1	1	1	-0.465	-1.93	-2.148	-2.316	-2.478	-2.538	-2.624	-3.042	-3.192	-2.977	-2.957	-2.771	-2.711	-2.794	-2.415	-2.022	-1.924	-1.903	-1.584	-1.365	-1.345	-1.542	-1.769	-2.622	-4.066	-5.864	-7.704	-9.586	-11.528	-13.528	-15.885	-18.579	-21.342	-23.85	-25.916	-27.625	-29.235	-30.906	-32.506	-33.757	-34.508	-34.85	-34.968	-34.999	-35	-35	-35	-35	-35	-35	-35	-35
1	1	1	1	1	1	1	1	1	1	1	-0.26	-1.519	-2.064	-2.264	-2.421	-2.704	-2.752	-2.931	-3.117	-3.046	-2.916	-2.906	-2.653	-2.557	-2.533	-2.219	-1.928	-1.87	-1.796	-1.318	-1.203	-1.313	-1.586	-2.191	-3.41	-5.173	-7.065	-8.967	-10.873	-12.522	-14.333	-16.59	-19.245	-21.978	-24.386	-26.274	-27.79	-29.256	-30.852	-32.436	-33.701	-34.477	-34.837	-34.966	-34.998	-35	-35	-35	-35	-35	-35	-35	-35
1	1	1	1	1	1	1	1	1	1	1	-0.439	-1.878	-2.182	-2.365	-2.564	-2.671	-2.823	-2.926	-2.875	-2.907	-3.064	-2.97	-2.799	-2.578	-2.41	-2.085	-1.801	-1.79	-1.616	-1.168	-1.143	-1.344	-1.726	-2.461	-3.882	-5.927	-8.03	-10.145	-12.086	-13.576	-15.312	-17.543	-20.185	-22.853	-25.098	-26.759	-28.061	-29.374	-30.882	-32.426	-33.682	-34.463	-34.83	-34.963	-34.998	-35	-35	-35	-35	-35	-35	-35	-35
1	1	1	1	1	1	1	1	1	1	1	-0.513	-2.025	-2.177	-2.347	-2.476	-2.536	-2.469	-2.702	-2.843	-2.998	-3.358	-3.131	-3.11	-2.823	-2.237	-1.889	-1.792	-1.667	-1.306	-1.106	-1.178	-1.468	-1.999	-3.066	-4.846	-7.1	-9.381	-11.642	-13.424	-14.88	-16.664	-18.916	-21.484	-23.947	-25.906	-27.289	-28.39	-29.587	-31.022	-32.509	-33.718	-34.472	-34.832	-34.96	-34.996	-35	-35	-35	-35	-35	-35	-35	-35
1	1	1	1	1	1	1	1	1	1	-0.172	-1.344	-2.068	-2.218	-2.373	-2.441	-2.615	-2.56	-2.83	-3.175	-3.483	-3.529	-3.114	-3.106	-3.046	-2.361	-1.993	-1.743	-1.522	-1.162	-1.136	-1.321	-1.696	-2.248	-3.867	-6.195	-8.637	-11.095	-13.317	-14.929	-16.56	-18.495	-20.734	-23.066	-25.14	-26.7	-27.806	-28.776	-29.928	-31.319	-32.727	-33.845	-34.528	-34.848	-34.966	-34.998	-35	-35	-35	-35	-35	-35	-35	-35
1	1	1	1	1	1	1	1	1	1	-0.311	-1.622	-2.144	-2.362	-2.608	-2.602	-2.595	-2.718	-2.993	-3.185	-3.421	-3.416	-3.08	-3.354	-3.193	-2.854	-2.387	-1.772	-1.606	-1.366	-1.314	-1.578	-1.86	-2.443	-4.674	-7.339	-10.022	-12.684	-14.787	-16.614	-18.588	-20.682	-22.779	-24.699	-26.261	-27.406	-28.309	-29.252	-30.433	-31.798	-33.091	-34.059	-34.625	-34.883	-34.974	-34.999	-35	-35	-35	-35	-35	-35	-35	-35
1	1	1	1	1	1	1	1	1	1	-0.382	-1.764	-2.182	-2.457	-2.755	-2.642	-2.764	-2.925	-3.299	-3.311	-3.196	-3.001	-3.013	-3.43	-2.798	-2.943	-2.782	-2.566	-2.388	-1.991	-1.931	-1.986	-2.205	-3.624	-6.141	-8.745	-11.393	-13.976	-16.124	-18.369	-20.68	-22.83	-24.652	-26.085	-27.155	-27.988	-28.81	-29.828	-31.082	-32.406	-33.543	-34.32	-34.742	-34.922	-34.984	-35	-35	-35	-35	-35	-35	-35	-35	-35
1	1	1	1	1	1	1	1	1	1	-0.47	-1.939	-2.28	-2.626	-3.038	-2.716	-2.757	-2.879	-3.504	-3.635	-3.288	-2.832	-2.653	-2.595	-2.206	-2.083	-2.117	-2.797	-3.06	-2.84	-2.786	-3.088	-3.899	-5.708	-7.9	-10.154	-12.525	-14.898	-17.282	-19.873	-22.382	-24.466	-25.981	-27.008	-27.741	-28.424	-29.284	-30.427	-31.757	-33.016	-33.975	-34.56	-34.845	-34.956	-34.994	-35	-35	-35	-35	-35	-35	-35	-35	-35
1	1	1	1	1	1	1	1	1	-0.047	-1.093	-1.94	-2.29	-2.612	-2.946	-2.852	-2.887	-2.989	-3.379	-3.345	-3.018	-2.572	-2.244	-2.111	-1.864	-1.75	-1.731	-2.183	-2.725	-2.983	-3.395	-4.558	-6.002	-7.546	-9.282	-11.228	-13.264	-15.509	-18.052	-20.782	-23.316	-25.285	-26.599	-27.42	-28.025	-28.7	-29.662	-30.936	-32.314	-33.499	-34.3	-34.731	-34.915	-34.978	-34.999	-35	-35	-35	-35	-35	-35	-35	-35	-35
1	1	1	1	1	1	1	1	1	-0.219	-1.437	-1.99	-2.26	-2.524	-2.951	-2.936	-2.841	-3.046	-3.172	-3.002	-3.014	-2.827	-2.411	-1.978	-1.898	-1.714	-1.397	-1.442	-1.973	-2.512	-3.012	-4	-5.712	-7.493	-9.34	-11.47	-13.578	-15.812	-18.316	-20.967	-23.401	-25.296	-26.586	-27.426	-28.078	-28.835	-29.909	-31.28	-32.684	-33.805	-34.497	-34.828	-34.954	-34.993	-35	-35	-35	-35	-35	-35	-35	-35	-35	-35
1	1	1	1	1	1	1	1	1	-0.339	-1.678	-2.086	-2.303	-2.554	-3.004	-2.878	-2.577	-2.798	-3.058	-2.963	-2.921	-2.828	-2.643	-2.349	-2.033	-1.746	-1.359	-1.204	-1.474	-1.92	-2.161	-3.24	-5.217	-7.276	-9.369	-11.695	-13.827	-15.928	-18.223	-20.646	-22.923	-24.801	-26.201	-27.21	-28.019	-28.906	-30.076	-31.506	-32.911	-33.979	-34.601	-34.877	-34.972	-34.998	-35	-35	-35	-35	-35	-35	-35	-35	-35	-35
1	1	1	1	1	1	1	1	1	-0.336	-1.672	-2.049	-2.295	-2.627	-3.104	-2.795	-2.476	-2.86	-3.114	-3.072	-3.008	-2.808	-2.638	-2.47	-2.028	-1.77	-1.559	-1.286	-1.44	-1.818	-2.091	-3.288	-5.379	-7.52	-9.727	-12.139	-14.189	-16.12	-18.149	-20.292	-22.386	-24.249	-25.786	-26.998	-28.005	-29.038	-30.298	-31.748	-33.113	-34.112	-34.669	-34.906	-34.983	-35	-35	-35	-35	-35	-35	-35	-35	-35	-35	-35
1	1	1	1	1	1	1	1	1	-0.28	-1.559	-1.942	-2.181	-2.547	-2.809	-2.576	-2.719	-3.524	-3.806	-3.458	-3.013	-2.657	-2.551	-2.265	-1.9	-1.81	-1.648	-1.501	-1.742	-1.942	-2.444	-4.055	-6.099	-8.159	-10.392	-12.815	-14.826	-16.64	-18.456	-20.345	-22.244	-24.04	-25.64	-26.998	-28.178	-29.361	-30.698	-32.124	-33.388	-34.268	-34.742	-34.938	-34.995	-35	-35	-35	-35	-35	-35	-35	-35	-35	-35	-35
1	1	1	1	1	1	1	1	1	-0.168	-1.335	-2.016	-2.204	-2.495	-2.565	-2.378	-2.793	-3.603	-3.673	-3.304	-2.75	-2.627	-2.399	-2.001	-1.81	-1.867	-1.704	-2.02	-2.238	-2.101	-3.012	-4.831	-6.752	-8.772	-11.264	-13.707	-15.759	-17.556	-19.257	-20.969	-22.69	-24.364	-25.924	-27.334	-28.635	-29.941	-31.315	-32.653	-33.749	-34.468	-34.839	-34.978	-35	-35	-35	-35	-35	-35	-35	-35	-35	-35	-35	-35
1	1	1	1	1	1	1	1	1	0.027	-0.946	-2.021	-2.184	-2.44	-2.623	-2.605	-3.147	-3.258	-3.159	-2.705	-2.473	-2.38	-2.071	-1.816	-1.794	-1.771	-1.786	-2.208	-2.589	-2.955	-4.215	-5.804	-7.425	-9.502	-12.228	-14.725	-16.86	-18.705	-20.39	-22.021	-23.62	-25.161	-26.628	-28.026	-29.393	-30.76	-32.096	-33.272	-34.154	-34.7	-34.948	-34.998	-35	-35	-35	-35	-35	-35	-35	-35	-35	-35	-35	-35
1	1	1	1	1	1	1	1	1	-0.101	-1.202	-2.086	-2.226	-2.492	-2.951	-3.112	-3.376	-3.128	-2.93	-2.582	-2.364	-2.124	-1.935	-1.778	-1.638	-1.511	-1.785	-2.16	-2.442	-3.326	-4.693	-6.109	-7.814	-10.416	-13.239	-15.768	-17.956	-19.854	-21.578	-23.213	-24.763	-26.22	-27.612	-28.995	-30.382	-31.727	-32.933	-33.898	-34.567	-34.915	-34.996	-35	-35	-35	-35	-35	-35	-35	-35	-35	-35	-35	-35	-35
1	1	1	1	1	1	1	1	1	-0.321	-1.641	-2.112	-2.277	-2.596	-3.06	-3.559	-3.717	-3.474	-2.827	-2.432	-2.188	-2.047	-2.002	-1.89	-1.473	-1.408	-1.786	-2.324	-3.134	-4.214	-5.353	-6.621	-8.738	-11.575	-14.331	-16.808	-18.981	-20.901	-22.667	-24.34	-25.9	-27.337	-28.715	-30.1	-31.464	-32.706	-33.726	-34.48	-34.895	-34.996	-35	-35	-35	-35	-35	-35	-35	-35	-35	-35	-35	-35	-35	-35
1	1	1	1	1	1	1	1	1	-0.399	-1.798	-2.141	-2.435	-2.684	-3.086	-3.246	-3.404	-3.278	-2.757	-2.359	-2.21	-2.081	-2.052	-1.84	-1.407	-1.537	-1.996	-2.663	-3.697	-4.902	-6.116	-7.693	-10.239	-12.982	-15.586	-17.948	-20.052	-21.942	-23.711	-25.402	-26.984	-28.442	-29.838	-31.208	-32.493	-33.577	-34.408	-34.884	-34.996	-35	-35	-35	-35	-35	-35	-35	-35	-35	-35	-35	-35	-35	-35	-35
1	1	1	1	1	1	1	1	1	-0.376	-1.751	-2.053	-2.328	-2.716	-3.089	-2.873	-2.89	-2.761	-2.606	-2.318	-2.252	-2.104	-1.94	-1.615	-1.561	-1.8	-2.291	-3.285	-4.594	-5.977	-7.434	-9.472	-12.073	-14.65	-17.086	-19.321	-21.334	-23.151	-24.863	-26.528	-28.117	-29.596	-30.973	-32.255	-33.382	-34.292	-34.855	-34.995	-35	-35	-35	-35	-35	-35	-35	-35	-35	-35	-35	-35	-35	-35	-35	-35
1	1	1	1	1	1	1	1	1	-0.331	-1.661	-1.862	-2.178	-2.826	-2.92	-2.603	-2.294	-2.165	-2.214	-2.331	-2.178	-1.992	-1.632	-1.497	-1.733	-1.944	-2.752	-4.016	-5.368	-6.894	-8.971	-11.478	-14.03	-16.461	-18.756	-20.89	-22.814	-24.537	-26.158	-27.769	-29.35	-30.81	-32.1	-33.209	-34.136	-34.789	-34.99	-35	-35	-35	-35	-35	-35	-35	-35	-35	-35	-35	-35	-35	-35	-35	-35	-35
1	1	1	1	1	1	1	1	1	-0.313	-1.626	-1.71	-1.979	-2.501	-2.26	-2.467	-2.172	-1.922	-1.926	-2.032	-1.843	-1.526	-1.402	-1.65	-2.08	-2.736	-3.834	-5.067	-6.341	-8.194	-10.792	-13.404	-15.874	-18.186	-20.369	-22.412	-24.258	-25.894	-27.434	-29.002	-30.562	-31.97	-33.122	-34.036	-34.714	-34.978	-35	-35	-35	-35	-35	-35	-35	-35	-35	-35	-35	-35	-35	-35	-35	-35	-35	-35
1	1	1	1	1	1	1	1	1	-0.25	-1.5	-1.712	-1.849	-1.789	-2.152	-2.338	-2.798	-2.797	-2.288	-2.087	-1.663	-1.345	-1.418	-1.907	-2.71	-3.747	-4.869	-6.013	-7.455	-9.822	-12.523	-15.092	-17.454	-19.638	-21.703	-23.655	-25.423	-27.003	-28.508	-30.059	-31.592	-32.917	-33.932	-34.652	-34.965	-35	-35	-35	-35	-35	-35	-35	-35	-35	-35	-35	-35	-35	-35	-35	-35	-35	-35	-35
1	1	1	1	1	1	1	1	1	-0.279	-1.557	-1.738	-1.656	-1.566	-2.17	-2.681	-3.426	-3.017	-2.398	-2.105	-1.641	-1.299	-1.546	-2.073	-3.104	-4.304	-5.508	-6.742	-8.615	-11.336	-14.026	-16.51	-18.75	-20.801	-22.739	-24.581	-26.271	-27.818	-29.334	-30.891	-32.378	-33.603	-34.494	-34.938	-35	-35	-35	-35	-35	-35	-35	-35	-35	-35	-35	-35	-35	-35	-35	-35	-35	-35	-35	-35
1	1	1	1	1	1	1	1	1	-0.18	-1.361	-1.554	-1.513	-1.676	-2.561	-3.09	-3.088	-2.52	-2.28	-1.879	-1.346	-1.379	-1.663	-1.896	-3.025	-4.393	-5.769	-7.338	-9.81	-12.626	-15.278	-17.68	-19.824	-21.773	-23.598	-25.316	-26.912	-28.433	-29.976	-31.539	-32.963	-34.092	-34.816	-34.996	-35	-35	-35	-35	-35	-35	-35	-35	-35	-35	-35	-35	-35	-35	-35	-35	-35	-35	-35	-35
1	1	1	1	1	1	1	1	1	-0.08	-1.159	-1.335	-1.474	-1.65	-2.293	-2.638	-2.205	-1.975	-2.024	-1.589	-1.158	-1.418	-1.758	-2.155	-3.391	-4.816	-6.248	-8.078	-10.861	-13.684	-16.293	-18.638	-20.726	-22.612	-24.344	-25.936	-27.421	-28.902	-30.463	-32.028	-33.398	-34.444	-34.95	-35	-35	-35	-35	-35	-35	-35	-35	-35	-35	-35	-35	-35	-35	-35	-35	-35	-35	-35	-35	-35
1	1	1	1	1	1	1	1	1	-0.077	-1.155	-1.312	-1.434	-1.496	-1.924	-1.81	-1.557	-1.765	-1.968	-1.257	-1.09	-1.472	-1.825	-2.513	-3.879	-5.33	-6.808	-8.917	-11.774	-14.549	-17.094	-19.372	-21.402	-23.23	-24.88	-26.364	-27.752	-29.191	-30.757	-32.328	-33.681	-34.669	-34.99	-35	-35	-35	-35	-35	-35	-35	-35	-35	-35	-35	-35	-35	-35	-35	-35	-35	-35	-35	-35	-35
1	1	1	1	1	1	1	1	1	-0.121	-1.242	-1.326	-1.374	-1.444	-2.164	-2.132	-1.622	-1.728	-2.079	-1.431	-1.165	-1.48	-1.737	-2.476	-4.032	-5.632	-7.313	-9.747	-12.564	-15.231	-17.663	-19.82	-21.732	-23.457	-25.028	-26.454	-27.814	-29.255	-30.845	-32.444	-33.832	-34.787	-34.998	-35	-35	-35	-35	-35	-35	-35	-35	-35	-35	-35	-35	-35	-35	-35	-35	-35	-35	-35	-35	-35
1	1	1	1	1	1	1	1	1	-0.087	-1.175	-1.484	-1.561	-1.596	-2.316	-2.361	-1.809	-1.657	-1.876	-1.325	-1.104	-1.437	-1.76	-2.661	-4.395	-6.195	-8.045	-10.482	-13.18	-15.686	-17.95	-19.928	-21.655	-23.228	-24.728	-26.176	-27.618	-29.148	-30.804	-32.459	-33.918	-34.854	-35	-35	-35	-35	-35	-35	-35	-35	-35	-35	-35	-35	-35	-35	-35	-35	-35	-35	-35	-35	-35	-35
1	1	1	1	1	1	1	1	1	-0.173	-1.346	-1.895	-1.96	-1.57	-2.248	-2.414	-1.832	-1.682	-1.546	-1.224	-1.146	-1.344	-1.64	-2.408	-4.314	-6.39	-8.483	-10.941	-13.534	-15.845	-17.911	-19.693	-21.237	-22.681	-24.162	-25.713	-27.33	-29.022	-30.788	-32.516	-34.046	-34.911	-35	-35	-35	-35	-35	-35	-35	-35	-35	-35	-35	-35	-35	-35	-35	-35	-35	-35	-35	-35	-35	-35
1	1	1	1	1	1	1	1	1	-0.226	-1.452	-1.98	-1.866	-1.628	-2.069	-1.988	-1.776	-2.045	-1.75	-1.324	-1.16	-1.318	-1.631	-2.315	-4.272	-6.451	-8.642	-11.115	-13.582	-15.679	-17.536	-19.159	-20.618	-22.058	-23.624	-25.35	-27.179	-29.058	-30.941	-32.737	-34.286	-34.962	-35	-35	-35	-35	-35	-35	-35	-35	-35	-35	-35	-35	-35	-35	-35	-35	-35	-35	-35	-35	-35	-35
1	1	1	1	1	1	1	1	1	-0.262	-1.525	-1.773	-1.782	-1.541	-2.004	-2.14	-2.082	-2.162	-1.996	-1.57	-1.128	-1.302	-1.7	-2.375	-4.262	-6.442	-8.63	-11.015	-13.372	-15.247	-16.898	-18.426	-19.927	-21.524	-23.299	-25.25	-27.296	-29.343	-31.323	-33.167	-34.603	-34.992	-35	-35	-35	-35	-35	-35	-35	-35	-35	-35	-35	-35	-35	-35	-35	-35	-35	-35	-35	-35	-35	-35
1	1	1	1	1	1	1	1	1	-0.344	-1.688	-1.884	-1.644	-1.328	-2.035	-2.314	-2.09	-2.021	-1.833	-1.707	-1.205	-1.256	-1.678	-2.389	-4.183	-6.325	-8.472	-10.784	-13.014	-14.691	-16.168	-17.654	-19.288	-21.128	-23.173	-25.373	-27.628	-29.829	-31.886	-33.735	-34.855	-35	-35	-35	-35	-35	-35	-35	-35	-35	-35	-35	-35	-35	-35	-35	-35	-35	-35	-35	-35	-35	-35	-35
1	1	1	1	1	1	1	1	1	-0.208	-1.416	-1.806	-1.516	-1.351	-2.245	-2.477	-2.128	-2.042	-2.146	-1.893	-1.403	-1.25	-1.579	-1.878	-3.375	-5.651	-7.942	-10.336	-12.584	-14.16	-15.544	-17.048	-18.832	-20.895	-23.17	-25.581	-28.029	-30.375	-32.503	-34.27	-34.967	-35	-35	-35	-35	-35	-35	-35	-35	-35	-35	-35	-35	-35	-35	-35	-35	-35	-35	-35	-35	-35	-35	-35
1	1	1	1	1	1	1	1	1	-0.024	-1.047	-1.545	-1.409	-1.4	-2.222	-2.68	-2.17	-2.072	-2.188	-2.014	-1.584	-1.324	-1.575	-1.996	-3.453	-5.566	-7.69	-9.948	-12.141	-13.73	-15.154	-16.752	-18.682	-20.9	-23.306	-25.839	-28.418	-30.87	-33.04	-34.626	-34.995	-35	-35	-35	-35	-35	-35	-35	-35	-35	-35	-35	-35	-35	-35	-35	-35	-35	-35	-35	-35	-35	-35	-35
1	1	1	1	1	1	1	1	1	0.245	-0.511	-0.764	-1.159	-1.519	-2.303	-2.918	-2.66	-2.335	-2.268	-2.065	-1.659	-1.299	-1.538	-2.207	-3.785	-5.619	-7.465	-9.568	-11.703	-13.416	-15.01	-16.792	-18.888	-21.219	-23.67	-26.216	-28.81	-31.28	-33.442	-34.804	-35	-35	-35	-35	-35	-35	-35	-35	-35	-35	-35	-35	-35	-35	-35	-35	-35	-35	-35	-35	-35	-35	-35	-35
1	1	1	1	1	1	1	1	1	0.281	-0.438	-0.637	-0.974	-1.524	-2.286	-2.566	-2.685	-2.656	-2.486	-2.28	-1.816	-1.336	-1.522	-1.836	-3.251	-5.101	-6.962	-9.043	-11.29	-13.21	-15.062	-17.093	-19.387	-21.826	-24.282	-26.753	-29.247	-31.634	-33.733	-34.89	-35	-35	-35	-35	-35	-35	-35	-35	-35	-35	-35	-35	-35	-35	-35	-35	-35	-35	-35	-35	-35	-35	-35	-35
1	1	1	1	1	1	1	1	1	0.09	-0.82	-1.036	-1.301	-1.716	-2.362	-2.08	-2.004	-2.4	-2.338	-2.108	-1.714	-1.336	-1.489	-1.783	-2.918	-4.764	-6.634	-8.623	-10.957	-13.114	-15.239	-17.521	-19.998	-22.531	-24.982	-27.364	-29.717	-31.979	-33.977	-34.938	-35	-35	-35	-35	-35	-35	-35	-35	-35	-35	-35	-35	-35	-35	-35	-35	-35	-35	-35	-35	-35	-35	-35	-35
1	1	1	1	1	1	1	1	1	-0.023	-1.046	-1.567	-1.643	-1.698	-2.338	-2.088	-1.656	-2.119	-2.185	-1.786	-1.43	-1.232	-1.444	-1.744	-2.657	-4.492	-6.373	-8.333	-10.732	-13.098	-15.457	-17.931	-20.519	-23.094	-25.548	-27.894	-30.168	-32.34	-34.224	-34.971	-35	-35	-35	-35	-35	-35	-35	-35	-35	-35	-35	-35	-35	-35	-35	-35	-35	-35	-35	-35	-35	-35	-35	-35
1	1	1	1	1	1	1	1	1	1	-0.286	-1.572	-1.626	-1.866	-2.552	-2.089	-1.656	-1.953	-2.019	-1.582	-1.386	-1.268	-1.472	-1.76	-2.715	-4.466	-6.248	-8.153	-10.61	-13.116	-15.647	-18.238	-20.856	-23.42	-25.885	-28.268	-30.569	-32.723	-34.472	-34.99	-35	-35	-35	-35	-35	-35	-35	-35	-35	-35	-35	-35	-35	-35	-35	-35	-35	-35	-35	-35	-35	-35	-35	-35
1	1	1	1	1	1	1	1	1	1	-0.216	-1.432	-1.595	-1.965	-2.56	-2.136	-1.942	-1.979	-1.919	-1.595	-1.511	-1.464	-1.667	-1.882	-2.837	-4.498	-6.173	-8.024	-10.523	-13.141	-15.806	-18.486	-21.112	-23.644	-26.112	-28.556	-30.932	-33.12	-34.689	-34.998	-35	-35	-35	-35	-35	-35	-35	-35	-35	-35	-35	-35	-35	-35	-35	-35	-35	-35	-35	-35	-35	-35	-35	-35
1	1	1	1	1	1	1	1	1	1	1	-1.05	-1.324	-1.705	-2.338	-2.256	-2.261	-2.25	-1.884	-1.692	-1.564	-1.532	-2.069	-2.2	-3.179	-4.672	-6.17	-7.94	-10.458	-13.168	-15.98	-18.784	-21.459	-23.974	-26.415	-28.87	-31.29	-33.514	-34.846	-35	-35	-35	-35	-35	-35	-35	-35	-35	-35	-35	-35	-35	-35	-35	-35	-35	-35	-35	-35	-35	-35	-35	-35	-35
1	1	1	1	1	1	1	1	1	1	1	-0.174	-1.348	-1.646	-2.162	-2.151	-2.293	-2.101	-1.766	-1.698	-1.517	-1.46	-1.944	-1.88	-2.895	-4.449	-6.012	-7.833	-10.388	-13.204	-16.184	-19.154	-21.926	-24.449	-26.842	-29.246	-31.658	-33.876	-34.932	-35	-35	-35	-35	-35	-35	-35	-35	-35	-35	-35	-35	-35	-35	-35	-35	-35	-35	-35	-35	-35	-35	-35	-35	-35
1	1	1	1	1	1	1	1	1	1	1	-0.169	-1.338	-1.729	-2.131	-2.285	-2.232	-1.822	-1.704	-1.663	-1.456	-1.381	-1.703	-1.846	-2.843	-4.438	-6.056	-7.796	-10.288	-13.219	-16.351	-19.466	-22.332	-24.886	-27.26	-29.627	-32.022	-34.177	-34.974	-35	-35	-35	-35	-35	-35	-35	-35	-35	-35	-35	-35	-35	-35	-35	-35	-35	-35	-35	-35	-35	-35	-35	-35	-35
1	1	1	1	1	1	1	1	1	1	1	0.005	-0.99	-1.813	-2.318	-2.444	-2.175	-1.864	-1.802	-1.641	-1.447	-1.394	-1.72	-2.019	-3.048	-4.575	-6.127	-7.767	-10.19	-13.189	-16.404	-19.582	-22.491	-25.093	-27.526	-29.942	-32.358	-34.406	-34.99	-35	-35	-35	-35	-35	-35	-35	-35	-35	-35	-35	-35	-35	-35	-35	-35	-35	-35	-35	-35	-35	-35	-35	-35	-35
1	1	1	1	1	1	1	1	1	1	1	1	-0.323	-1.646	-2.341	-2.168	-2.024	-1.829	-1.77	-1.61	-1.492	-1.44	-1.902	-2.068	-2.645	-4.258	-5.95	-7.69	-10.099	-13.128	-16.36	-19.532	-22.437	-25.096	-27.652	-30.188	-32.657	-34.575	-34.997	-35	-35	-35	-35	-35	-35	-35	-35	-35	-35	-35	-35	-35	-35	-35	-35	-35	-35	-35	-35	-35	-35	-35	-35	-35
1	1	1	1	1	1	1	1	1	1	1	1	-0.232	-1.463	-2.294	-2.134	-1.995	-1.947	-1.756	-1.7	-1.455	-1.357	-1.875	-1.913	-2.197	-3.901	-5.741	-7.618	-10.074	-13.098	-16.328	-19.494	-22.401	-25.118	-27.787	-30.434	-32.938	-34.698	-34.999	-35	-35	-35	-35	-35	-35	-35	-35	-35	-35	-35	-35	-35	-35	-35	-35	-35	-35	-35	-35	-35	-35	-35	-35	-35
1	1	1	1	1	1	1	1	1	1	1	1	-0.244	-1.488	-1.956	-1.987	-1.888	-1.99	-1.778	-1.741	-1.512	-1.349	-1.882	-2.034	-2.147	-3.818	-5.753	-7.708	-10.132	-13.16	-16.408	-19.608	-22.561	-25.334	-28.064	-30.748	-33.239	-34.802	-35	-35	-35	-35	-35	-35	-35	-35	-35	-35	-35	-35	-35	-35	-35	-35	-35	-35	-35	-35	-35	-35	-35	-35	-35	-35
1	1	1	1	1	1	1	1	1	1	1	1	-0.316	-1.632	-2.358	-2.497	-2.361	-2.138	-1.784	-1.707	-1.587	-1.377	-1.685	-1.875	-1.934	-3.682	-5.745	-7.819	-10.297	-13.346	-16.618	-19.878	-22.914	-25.754	-28.505	-31.162	-33.584	-34.889	-35	-35	-35	-35	-35	-35	-35	-35	-35	-35	-35	-35	-35	-35	-35	-35	-35	-35	-35	-35	-35	-35	-35	-35	-35	-35
1	1	1	1	1	1	1	1	1	1	1	1	-0.405	-1.811	-2.651	-2.67	-2.386	-2.226	-1.859	-1.637	-1.617	-1.338	-1.435	-1.798	-2.183	-3.927	-6.021	-8.124	-10.563	-13.649	-16.939	-20.258	-23.396	-26.324	-29.087	-31.687	-33.975	-34.953	-35	-35	-35	-35	-35	-35	-35	-35	-35	-35	-35	-35	-35	-35	-35	-35	-35	-35	-35	-35	-35	-35	-35	-35	-35	-35
1	1	1	1	1	1	1	1	1	1	1	0.088	-0.824	-1.956	-2.418	-2.163	-2.086	-2.127	-1.943	-1.64	-1.636	-1.388	-1.359	-1.729	-2.284	-4.061	-6.212	-8.374	-10.887	-14.05	-17.385	-20.778	-24.036	-27.057	-29.817	-32.322	-34.362	-34.986	-35	-35	-35	-35	-35	-35	-35	-35	-35	-35	-35	-35	-35	-35	-35	-35	-35	-35	-35	-35	-35	-35	-35	-35	-35	-35
1	1	1	1	1	1	1	1	1	1	1	-0.035	-1.069	-2.036	-2.441	-2.154	-2.3	-2.368	-2.225	-1.844	-1.688	-1.43	-1.44	-1.84	-2.523	-4.402	-6.52	-8.651	-11.257	-14.516	-17.964	-21.501	-24.903	-27.992	-30.691	-33.028	-34.679	-34.998	-35	-35	-35	-35	-35	-35	-35	-35	-35	-35	-35	-35	-35	-35	-35	-35	-35	-35	-35	-35	-35	-35	-35	-35	-35	-35
1	1	1	1	1	1	1	1	1	1	1	-0.166	-1.333	-2.274	-2.593	-2.27	-2.46	-2.624	-2.412	-1.972	-1.754	-1.517	-1.543	-1.902	-2.592	-4.522	-6.714	-8.918	-11.548	-14.968	-18.625	-22.383	-25.948	-29.06	-31.621	-33.708	-34.877	-35	-35	-35	-35	-35	-35	-35	-35	-35	-35	-35	-35	-35	-35	-35	-35	-35	-35	-35	-35	-35	-35	-35	-35	-35	-35	-35
1	1	1	1	1	1	1	1	1	1	1	-0.319	-1.638	-2.473	-2.596	-2.236	-2.43	-2.669	-2.504	-2.032	-1.766	-1.486	-1.409	-1.785	-2.318	-4.285	-6.644	-9.011	-11.752	-15.36	-19.254	-23.258	-26.977	-30.075	-32.462	-34.25	-34.966	-35	-35	-35	-35	-35	-35	-35	-35	-35	-35	-35	-35	-35	-35	-35	-35	-35	-35	-35	-35	-35	-35	-35	-35	-35	-35	-35
1	1	1	1	1	1	1	1	1	1	1	-0.39	-1.78	-2.455	-2.79	-2.414	-2.517	-2.562	-2.548	-2.044	-1.822	-1.602	-1.374	-1.729	-2.167	-4.166	-6.632	-9.105	-11.957	-15.698	-19.77	-23.952	-27.774	-30.841	-33.082	-34.59	-34.993	-35	-35	-35	-35	-35	-35	-35	-35	-35	-35	-35	-35	-35	-35	-35	-35	-35	-35	-35	-35	-35	-35	-35	-35	-35	-35	-35
1	1	1	1	1	1	1	1	1	1	1	-0.341	-1.683	-2.474	-3.27	-3.047	-2.802	-2.613	-2.557	-2.065	-1.82	-1.606	-1.358	-1.727	-2.198	-4.166	-6.742	-9.33	-12.218	-16.027	-20.164	-24.392	-28.23	-31.258	-33.422	-34.747	-34.998	-35	-35	-35	-35	-35	-35	-35	-35	-35	-35	-35	-35	-35	-35	-35	-35	-35	-35	-35	-35	-35	-35	-35	-35	-35	-35	-35
1	1	1	1	1	1	1	1	1	1	1	-0.464	-1.927	-2.794	-3.415	-3.37	-2.936	-2.749	-2.656	-2.177	-1.84	-1.687	-1.356	-1.766	-2.257	-4.194	-6.885	-9.591	-12.535	-16.37	-20.465	-24.616	-28.378	-31.362	-33.515	-34.79	-35	-35	-35	-35	-35	-35	-35	-35	-35	-35	-35	-35	-35	-35	-35	-35	-35	-35	-35	-35	-35	-35	-35	-35	-35	-35	-35	-35
1	1	1	1	1	1	1	1	1	1	-0.214	-1.428	-2.023	-3.12	-3.691	-3.71	-3.187	-2.894	-2.668	-2.169	-1.942	-1.859	-1.468	-1.715	-2.135	-4.119	-6.924	-9.744	-12.794	-16.658	-20.669	-24.693	-28.346	-31.293	-33.474	-34.788	-35	-35	-35	-35	-35	-35	-35	-35	-35	-35	-35	-35	-35	-35	-35	-35	-35	-35	-35	-35	-35	-35	-35	-35	-35	-35	-35	-35
1	1	1	1	1	1	1	1	1	1	-0.431	-1.862	-2.296	-3.331	-3.741	-3.805	-3.406	-2.884	-2.493	-2.152	-1.947	-1.85	-1.477	-1.613	-1.785	-3.502	-6.512	-9.562	-12.792	-16.744	-20.744	-24.693	-28.276	-31.202	-33.424	-34.782	-35	-35	-35	-35	-35	-35	-35	-35	-35	-35	-35	-35	-35	-35	-35	-35	-35	-35	-35	-35	-35	-35	-35	-35	-35	-35	-35	-35
1	1	1	1	1	1	1	1	1	1	-0.632	-2.264	-2.292	-2.59	-2.703	-3.154	-3.078	-2.66	-2.413	-2.149	-1.857	-1.78	-1.426	-1.602	-1.684	-3.096	-6.162	-9.301	-12.566	-16.591	-20.682	-24.656	-28.242	-31.182	-33.442	-34.803	-35	-35	-35	-35	-35	-35	-35	-35	-35	-35	-35	-35	-35	-35	-35	-35	-35	-35	-35	-35	-35	-35	-35	-35	-35	-35	-35	-35
1	1	1	1	1	1	1	1	1	-0.313	-1.626	-2.407	-2.415	-2.342	-2.137	-2.404	-2.992	-2.867	-2.612	-2.397	-2.025	-1.704	-1.38	-1.595	-1.78	-3.097	-6.051	-9.081	-12.243	-16.296	-20.523	-24.6	-28.255	-31.242	-33.536	-34.84	-35	-35	-35	-35	-35	-35	-35	-35	-35	-35	-35	-35	-35	-35	-35	-35	-35	-35	-35	-35	-35	-35	-35	-35	-35	-35	-35	-35
1	1	1	1	1	1	1	1	1	-0.348	-1.695	-2.387	-2.784	-3.034	-3.249	-3.035	-2.932	-2.93	-2.512	-2.201	-1.849	-1.418	-1.324	-1.537	-1.662	-2.914	-5.8	-8.761	-11.863	-15.962	-20.341	-24.551	-28.3	-31.348	-33.671	-34.884	-35	-35	-35	-35	-35	-35	-35	-35	-35	-35	-35	-35	-35	-35	-35	-35	-35	-35	-35	-35	-35	-35	-35	-35	-35	-35	-35	-35
1	1	1	1	1	1	1	1	1	-0.356	-1.712	-2.092	-2.839	-3.546	-3.925	-4.01	-3.421	-2.717	-2.362	-2.046	-1.8	-1.402	-1.304	-1.515	-1.595	-2.55	-5.436	-8.471	-11.602	-15.7	-20.216	-24.53	-28.359	-31.455	-33.794	-34.916	-35	-35	-35	-35	-35	-35	-35	-35	-35	-35	-35	-35	-35	-35	-35	-35	-35	-35	-35	-35	-35	-35	-35	-35	-35	-35	-35	-35
1	1	1	1	1	1	1	1	-0.095	-1.19	-1.799	-2.045	-2.812	-3.668	-4.09	-4.211	-3.677	-3.076	-2.576	-2.225	-1.908	-1.52	-1.321	-1.547	-1.774	-2.87	-5.682	-8.647	-11.677	-15.664	-20.229	-24.575	-28.422	-31.53	-33.876	-34.931	-35	-35	-35	-35	-35	-35	-35	-35	-35	-35	-35	-35	-35	-35	-35	-35	-35	-35	-35	-35	-35	-35	-35	-35	-35	-35	-35	-35
1	1	1	1	1	1	1	1	-0.229	-1.457	-2.022	-2.526	-3.255	-3.848	-3.539	-3.679	-3.507	-3.469	-2.883	-2.956	-2.408	-1.53	-1.331	-1.586	-1.907	-3.346	-6.112	-8.991	-11.936	-15.866	-20.397	-24.688	-28.48	-31.564	-33.91	-34.938	-35	-35	-35	-35	-35	-35	-35	-35	-35	-35	-35	-35	-35	-35	-35	-35	-35	-35	-35	-35	-35	-35	-35	-35	-35	-35	-35	-35
1	1	1	1	1	1	1	1	-0.385	-1.769	-2.027	-2.707	-3.391	-3.726	-3.508	-3.96	-3.668	-3.118	-2.755	-2.898	-2.294	-1.511	-1.36	-1.623	-2.104	-3.892	-6.586	-9.337	-12.229	-16.22	-20.64	-24.81	-28.508	-31.547	-33.892	-34.935	-35	-35	-35	-35	-35	-35	-35	-35	-35	-35	-35	-35	-35	-35	-35	-35	-35	-35	-35	-35	-35	-35	-35	-35	-35	-35	-35	-35
1	1	1	1	1	1	1	-0.199	-1.398	-2.073	-2.425	-2.837	-3.246	-3.686	-3.261	-3.617	-3.592	-2.647	-2.187	-2.026	-1.834	-1.465	-1.35	-1.658	-2.193	-4.145	-6.785	-9.44	-12.403	-16.545	-20.822	-24.866	-28.471	-31.468	-33.811	-34.922	-35	-35	-35	-35	-35	-35	-35	-35	-35	-35	-35	-35	-35	-35	-35	-35	-35	-35	-35	-35	-35	-35	-35	-35	-35	-35	-35	-35
1	1	1	1	1	1	1	-0.443	-1.886	-2.252	-2.68	-2.634	-2.452	-2.995	-2.795	-2.58	-2.786	-2.293	-1.876	-1.779	-1.765	-1.445	-1.379	-1.728	-2.273	-4.345	-6.911	-9.488	-12.527	-16.678	-20.836	-24.781	-28.315	-31.27	-33.612	-34.873	-35	-35	-35	-35	-35	-35	-35	-35	-35	-35	-35	-35	-35	-35	-35	-35	-35	-35	-35	-35	-35	-35	-35	-35	-35	-35	-35	-35
1	1	1	1	1	1	-0.299	-1.599	-2.131	-2.258	-2.519	-2.52	-2.012	-2.572	-2.878	-2.761	-2.209	-2.212	-2.003	-1.826	-1.782	-1.428	-1.412	-1.794	-2.26	-4.332	-6.891	-9.457	-12.499	-16.579	-20.634	-24.481	-27.929	-30.828	-33.171	-34.706	-34.997	-35	-35	-35	-35	-35	-35	-35	-35	-35	-35	-35	-35	-35	-35	-35	-35	-35	-35	-35	-35	-35	-35	-35	-35	-35	-35	-35
1	1	1	1	1	1	-0.451	-1.901	-2.199	-2.378	-2.67	-2.984	-2.639	-2.149	-2.164	-2.171	-2.112	-2.246	-1.978	-1.847	-1.713	-1.354	-1.456	-1.937	-2.593	-4.624	-7.038	-9.46	-12.35	-16.29	-20.208	-23.892	-27.192	-30.021	-32.376	-34.234	-34.96	-35	-35	-35	-35	-35	-35	-35	-35	-35	-35	-35	-35	-35	-35	-35	-35	-35	-35	-35	-35	-35	-35	-35	-35	-35	-35	-35
1	1	1	1	1	1	-0.474	-1.948	-2.209	-2.537	-3.046	-3.331	-3.569	-2.788	-2.181	-2.18	-2.344	-2.37	-2.041	-1.846	-1.726	-1.346	-1.58	-2.119	-2.661	-4.674	-6.984	-9.305	-12.108	-15.889	-19.59	-23.02	-26.112	-28.86	-31.267	-33.351	-34.734	-34.997	-35	-35	-35	-35	-35	-35	-35	-35	-35	-35	-35	-35	-35	-35	-35	-35	-35	-35	-35	-35	-35	-35	-35	-35	-35	-35
1	1	1	1	1	-0.196	-1.392	-1.993	-2.214	-2.656	-3.046	-3.201	-3.929	-3.768	-3.091	-2.894	-2.611	-2.472	-2.004	-1.847	-1.653	-1.279	-1.582	-1.874	-2.675	-4.675	-6.794	-8.975	-11.913	-15.49	-18.893	-22.015	-24.879	-27.552	-30.037	-32.282	-34.16	-34.951	-35	-35	-35	-35	-35	-35	-35	-35	-35	-35	-35	-35	-35	-35	-35	-35	-35	-35	-35	-35	-35	-35	-35	-35	-35	-35
1	1	1	1	1	-0.285	-1.57	-2.012	-2.187	-2.533	-2.848	-3.424	-3.787	-4.046	-3.859	-3.529	-3.026	-2.518	-1.935	-1.841	-1.592	-1.255	-1.581	-1.841	-2.742	-4.691	-6.686	-8.799	-11.842	-15.17	-18.269	-21.108	-23.772	-26.38	-28.931	-31.313	-33.415	-34.775	-34.999	-35	-35	-35	-35	-35	-35	-35	-35	-35	-35	-35	-35	-35	-35	-35	-35	-35	-35	-35	-35	-35	-35	-35	-35	-35
1	1	1	1	1	-0.381	-1.762	-2.123	-2.203	-2.171	-2.597	-3.098	-3.557	-3.667	-3.277	-3.163	-2.96	-2.544	-2.15	-1.919	-1.584	-1.28	-1.55	-1.865	-2.816	-4.762	-6.752	-8.864	-11.825	-14.944	-17.824	-20.479	-23.01	-25.548	-28.123	-30.59	-32.786	-34.481	-34.988	-35	-35	-35	-35	-35	-35	-35	-35	-35	-35	-35	-35	-35	-35	-35	-35	-35	-35	-35	-35	-35	-35	-35	-35	-35
1	1	1	1	1	-0.354	-1.707	-2.034	-2.263	-2.19	-2.729	-2.931	-3.602	-3.312	-3.085	-2.816	-2.497	-2.299	-1.976	-1.851	-1.516	-1.263	-1.584	-1.885	-3.008	-4.876	-6.762	-8.85	-11.789	-14.798	-17.619	-20.229	-22.7	-25.174	-27.706	-30.174	-32.388	-34.213	-34.966	-35	-35	-35	-35	-35	-35	-35	-35	-35	-35	-35	-35	-35	-35	-35	-35	-35	-35	-35	-35	-35	-35	-35	-35	-35
1	1	1	1	-0.131	-1.262	-1.794	-1.966	-1.894	-2.33	-3.58	-3.871	-4.068	-3.314	-2.938	-2.688	-2.447	-1.962	-1.894	-1.807	-1.428	-1.26	-1.634	-2.03	-3.312	-5.029	-6.758	-8.813	-11.76	-14.789	-17.707	-20.404	-22.888	-25.298	-27.728	-30.1	-32.257	-34.09	-34.949	-35	-35	-35	-35	-35	-35	-35	-35	-35	-35	-35	-35	-35	-35	-35	-35	-35	-35	-35	-35	-35	-35	-35	-35	-35
1	1	1	1	-0.138	-1.276	-1.887	-2.084	-2.016	-2.702	-3.648	-4.11	-4.047	-3.685	-3.158	-2.527	-2.32	-1.995	-1.811	-1.764	-1.301	-1.28	-1.633	-2.02	-3.397	-5.121	-6.852	-8.95	-11.91	-15.026	-18.108	-20.958	-23.508	-25.879	-28.185	-30.401	-32.426	-34.174	-34.959	-35	-35	-35	-35	-35	-35	-35	-35	-35	-35	-35	-35	-35	-35	-35	-35	-35	-35	-35	-35	-35	-35	-35	-35	-35
1	1	1	1	-0.174	-1.347	-1.934	-2.244	-1.958	-2.3	-2.998	-3.113	-2.732	-2.727	-2.742	-2.57	-2.406	-2.176	-1.88	-1.706	-1.288	-1.374	-1.702	-2.091	-3.614	-5.39	-7.179	-9.421	-12.394	-15.545	-18.727	-21.696	-24.341	-26.731	-28.96	-31.022	-32.883	-34.44	-34.984	-35	-35	-35	-35	-35	-35	-35	-35	-35	-35	-35	-35	-35	-35	-35	-35	-35	-35	-35	-35	-35	-35	-35	-35	-35
1	1	1	1	-0.242	-1.484	-1.943	-2.489	-2.422	-3.079	-2.746	-2.385	-2.054	-2.239	-2.287	-2.224	-2.335	-2.273	-1.926	-1.588	-1.297	-1.481	-1.757	-2.15	-3.868	-5.771	-7.708	-10.174	-13.128	-16.214	-19.365	-22.372	-25.11	-27.588	-29.821	-31.788	-33.5	-34.739	-34.998	-35	-35	-35	-35	-35	-35	-35	-35	-35	-35	-35	-35	-35	-35	-35	-35	-35	-35	-35	-35	-35	-35	-35	-35	-35
1	1	1	1	-0.362	-1.724	-2.016	-2.588	-2.73	-3.156	-2.834	-2.574	-2.462	-2.56	-2.416	-2.256	-2.26	-2.067	-1.65	-1.414	-1.36	-1.71	-2.024	-2.823	-4.561	-6.362	-8.308	-10.962	-13.847	-16.817	-19.862	-22.844	-25.659	-28.246	-30.538	-32.472	-34.066	-34.918	-35	-35	-35	-35	-35	-35	-35	-35	-35	-35	-35	-35	-35	-35	-35	-35	-35	-35	-35	-35	-35	-35	-35	-35	-35	-35
1	1	1	1	-0.394	-1.788	-2.031	-2.17	-2.354	-2.708	-2.558	-3.086	-3.166	-2.975	-3.1	-2.85	-2.353	-1.774	-1.511	-1.398	-1.599	-1.9	-2.436	-3.423	-4.672	-6.254	-8.599	-11.447	-14.323	-17.23	-20.197	-23.158	-26.018	-28.675	-31.008	-32.936	-34.432	-34.98	-35	-35	-35	-35	-35	-35	-35	-35	-35	-35	-35	-35	-35	-35	-35	-35	-35	-35	-35	-35	-35	-35	-35	-35	-35	-35
1	1	1	1	-0.333	-1.666	-2.051	-2.08	-1.612	-1.9	-2.087	-2.986	-3.513	-3.509	-3.322	-2.708	-2.201	-1.751	-1.627	-1.62	-1.768	-2.024	-2.506	-3.039	-3.847	-5.784	-8.611	-11.594	-14.542	-17.482	-20.459	-23.432	-26.304	-28.964	-31.287	-33.204	-34.617	-34.994	-35	-35	-35	-35	-35	-35	-35	-35	-35	-35	-35	-35	-35	-35	-35	-35	-35	-35	-35	-35	-35	-35	-35	-35	-35	-35
1	1	1	1	-0.226	-1.452	-1.765	-1.886	-1.848	-2.022	-1.964	-2.302	-3.052	-3.263	-3.23	-2.48	-2.093	-1.709	-1.79	-2.002	-1.921	-2.074	-2.261	-2.475	-3.404	-5.683	-8.555	-11.603	-14.648	-17.679	-20.717	-23.716	-26.58	-29.204	-31.485	-33.383	-34.719	-34.998	-35	-35	-35	-35	-35	-35	-35	-35	-35	-35	-35	-35	-35	-35	-35	-35	-35	-35	-35	-35	-35	-35	-35	-35	-35	-35
1	1	1	1	-0.191	-1.382	-1.752	-2.031	-2.138	-2.346	-2.003	-2.38	-3.174	-3.525	-3.37	-2.459	-2.184	-1.694	-1.554	-1.734	-2.083	-2.345	-2.643	-2.954	-3.675	-5.742	-8.593	-11.674	-14.788	-17.886	-20.957	-23.959	-26.813	-29.415	-31.665	-33.539	-34.79	-35	-35	-35	-35	-35	-35	-35	-35	-35	-35	-35	-35	-35	-35	-35	-35	-35	-35	-35	-35	-35	-35	-35	-35	-35	-35	-35
1	1	1	1	-0.129	-1.258	-1.764	-2.118	-2.172	-2.568	-2.547	-2.707	-2.785	-3.032	-2.766	-2.073	-1.867	-1.748	-1.581	-1.486	-1.884	-2.327	-2.919	-3.609	-4.385	-6.006	-8.754	-11.856	-14.991	-18.078	-21.114	-24.088	-26.936	-29.54	-31.78	-33.636	-34.829	-35	-35	-35	-35	-35	-35	-35	-35	-35	-35	-35	-35	-35	-35	-35	-35	-35	-35	-35	-35	-35	-35	-35	-35	-35	-35	-35
1	1	1	1	-0.072	-1.144	-1.98	-2.057	-2.226	-2.914	-3.152	-2.968	-2.496	-2.542	-2.171	-1.851	-1.755	-1.692	-1.601	-1.37	-1.562	-1.936	-2.578	-3.803	-5.131	-6.613	-8.979	-12.089	-15.193	-18.208	-21.158	-24.074	-26.9	-29.493	-31.717	-33.571	-34.802	-35	-35	-35	-35	-35	-35	-35	-35	-35	-35	-35	-35	-35	-35	-35	-35	-35	-35	-35	-35	-35	-35	-35	-35	-35	-35	-35
1	1	1	1	0.072	-0.856	-1.814	-1.998	-2.254	-2.81	-3.383	-3.441	-2.996	-2.525	-2.123	-1.791	-1.66	-1.65	-1.584	-1.363	-1.394	-1.664	-2.192	-3.605	-5.286	-6.982	-9.194	-12.289	-15.333	-18.255	-21.119	-23.96	-26.716	-29.242	-31.424	-33.287	-34.684	-34.997	-35	-35	-35	-35	-35	-35	-35	-35	-35	-35	-35	-35	-35	-35	-35	-35	-35	-35	-35	-35	-35	-35	-35	-35	-35	-35
1	1	1	1	1	-0.209	-1.418	-1.602	-2.008	-2.546	-3.224	-3.735	-3.606	-2.976	-2.495	-2.126	-1.678	-1.563	-1.548	-1.342	-1.324	-1.589	-1.977	-3.348	-5.216	-7.099	-9.348	-12.407	-15.391	-18.246	-21.05	-23.819	-26.464	-28.872	-30.99	-32.874	-34.47	-34.988	-35	-35	-35	-35	-35	-35	-35	-35	-35	-35	-35	-35	-35	-35	-35	-35	-35	-35	-35	-35	-35	-35	-35	-35	-35	-35
1	1	1	1	1	-0.148	-1.296	-1.425	-1.526	-1.751	-2.202	-3.048	-3.578	-3.385	-2.78	-2.108	-1.688	-1.495	-1.548	-1.344	-1.282	-1.544	-2.145	-3.648	-5.367	-7.104	-9.393	-12.435	-15.374	-18.214	-20.997	-23.698	-26.235	-28.538	-30.61	-32.518	-34.245	-34.97	-35	-35	-35	-35	-35	-35	-35	-35	-35	-35	-35	-35	-35	-35	-35	-35	-35	-35	-35	-35	-35	-35	-35	-35	-35	-35
1	1	1	1	1	-0.183	-1.366	-1.413	-1.419	-1.463	-1.904	-2.119	-2.741	-3.081	-3.509	-2.852	-1.872	-1.495	-1.473	-1.277	-1.214	-1.492	-2.221	-3.736	-5.414	-7.111	-9.369	-12.371	-15.304	-18.157	-20.93	-23.586	-26.058	-28.322	-30.404	-32.344	-34.116	-34.955	-35	-35	-35	-35	-35	-35	-35	-35	-35	-35	-35	-35	-35	-35	-35	-35	-35	-35	-35	-35	-35	-35	-35	-35	-35	-35
1	1	1	1	1	-0.198	-1.397	-1.44	-1.394	-1.328	-1.791	-1.999	-2.21	-2.262	-3.141	-3.412	-2.487	-1.76	-1.449	-1.322	-1.27	-1.569	-2.326	-3.808	-5.451	-7.111	-9.328	-12.294	-15.214	-18.058	-20.808	-23.429	-25.892	-28.188	-30.326	-32.314	-34.094	-34.95	-35	-35	-35	-35	-35	-35	-35	-35	-35	-35	-35	-35	-35	-35	-35	-35	-35	-35	-35	-35	-35	-35	-35	-35	-35	-35
1	1	1	1	-0.022	-1.045	-1.746	-1.641	-1.294	-1.246	-1.434	-1.658	-1.896	-2.554	-3.095	-3.283	-3.346	-2.368	-1.554	-1.416	-1.403	-1.732	-2.433	-3.864	-5.445	-7.068	-9.355	-12.292	-15.153	-17.93	-20.625	-23.217	-25.691	-28.036	-30.24	-32.282	-34.1	-34.953	-35	-35	-35	-35	-35	-35	-35	-35	-35	-35	-35	-35	-35	-35	-35	-35	-35	-35	-35	-35	-35	-35	-35	-35	-35	-35
1	1	1	1	-0.212	-1.424	-1.959	-1.8	-1.368	-1.391	-1.345	-1.41	-1.499	-2.235	-3.092	-2.953	-3.066	-2.896	-2.047	-1.576	-1.54	-1.863	-2.774	-4.12	-5.502	-6.999	-9.454	-12.356	-15.126	-17.808	-20.434	-22.997	-25.468	-27.825	-30.055	-32.151	-34.061	-34.953	-35	-35	-35	-35	-35	-35	-35	-35	-35	-35	-35	-35	-35	-35	-35	-35	-35	-35	-35	-35	-35	-35	-35	-35	-35	-35
1	1	1	1	-0.371	-1.742	-1.949	-1.798	-1.771	-1.771	-1.49	-1.457	-1.799	-1.933	-2.234	-2.3	-2.389	-2.792	-2.347	-1.605	-1.582	-1.842	-2.776	-4.046	-5.328	-6.896	-9.527	-12.384	-15.088	-17.709	-20.296	-22.839	-25.29	-27.616	-29.824	-31.961	-33.986	-34.949	-35	-35	-35	-35	-35	-35	-35	-35	-35	-35	-35	-35	-35	-35	-35	-35	-35	-35	-35	-35	-35	-35	-35	-35	-35	-35
1	1	1	1	-0.625	-2.249	-2.512	-1.862	-1.582	-1.415	-1.187	-1.186	-1.693	-1.842	-1.836	-1.773	-1.713	-1.955	-1.915	-1.508	-1.558	-1.921	-2.885	-4.054	-5.228	-6.806	-9.487	-12.293	-14.984	-17.611	-20.22	-22.776	-25.218	-27.516	-29.7	-31.856	-33.951	-34.949	-35	-35	-35	-35	-35	-35	-35	-35	-35	-35	-35	-35	-35	-35	-35	-35	-35	-35	-35	-35	-35	-35	-35	-35	-35	-35
1	1	1	-0.56	-2.12	-2.516	-2.348	-1.591	-1.126	-1.059	-0.894	-0.988	-1.462	-1.759	-1.82	-1.626	-1.486	-1.83	-1.896	-1.584	-1.743	-2.207	-3.218	-4.35	-5.502	-7.152	-9.631	-12.223	-14.836	-17.514	-20.2	-22.816	-25.295	-27.608	-29.799	-31.961	-34.034	-34.96	-35	-35	-35	-35	-35	-35	-35	-35	-35	-35	-35	-35	-35	-35	-35	-35	-35	-35	-35	-35	-35	-35	-35	-35	-35	-35
1	1	1	-0.684	-2.367	-2.679	-2.751	-2.75	-1.772	-1.125	-0.814	-0.867	-1.192	-1.447	-1.693	-1.609	-1.444	-1.838	-2.433	-2.512	-3.12	-4.063	-5.188	-6.324	-7.471	-8.742	-10.226	-12.219	-14.736	-17.489	-20.272	-22.976	-25.523	-27.889	-30.117	-32.27	-34.232	-34.976	-35	-35	-35	-35	-35	-35	-35	-35	-35	-35	-35	-35	-35	-35	-35	-35	-35	-35	-35	-35	-35	-35	-35	-35	-35	-35
1	1	1	-0.832	-2.665	-2.74	-3.039	-3.278	-2.041	-1.058	-0.728	-0.814	-1.052	-1.258	-1.437	-1.568	-1.408	-1.659	-2.352	-3.104	-3.956	-4.82	-5.685	-6.55	-7.417	-8.293	-9.669	-12.076	-14.806	-17.644	-20.507	-23.29	-25.898	-28.311	-30.567	-32.702	-34.483	-34.992	-35	-35	-35	-35	-35	-35	-35	-35	-35	-35	-35	-35	-35	-35	-35	-35	-35	-35	-35	-35	-35	-35	-35	-35	-35	-35
1	1	1	-0.88	-2.761	-2.571	-2.307	-2.366	-1.727	-0.94	-0.847	-0.91	-1.026	-1.128	-1.272	-1.458	-1.386	-1.714	-2.37	-3.166	-3.988	-4.81	-5.631	-6.455	-7.277	-8.19	-9.872	-12.387	-15.137	-18.011	-20.918	-23.734	-26.37	-28.804	-31.064	-33.17	-34.707	-34.998	-35	-35	-35	-35	-35	-35	-35	-35	-35	-35	-35	-35	-35	-35	-35	-35	-35	-35	-35	-35	-35	-35	-35	-35	-35	-35
